3.116331365097646175e-02 3.188741580109766965e-02 3.206802891884546342e-02 3.176541919280719689e-02 3.104453900934196070e-02 2.997356010178250582e-02 2.862196995272781735e-02 2.705832517632280818e-02 2.534784620804633390e-02 2.355011521048665235e-02 2.171717545586791809e-02 1.989230263222525538e-02 1.810962105890117149e-02 1.639458954015440839e-02 1.476522160803975595e-02 1.323377788407287953e-02 1.180860681660965764e-02 1.049582343530755177e-02 9.300590283314948831e-03 8.227872968576977961e-03 7.282655614940046658e-03 6.469696286244138242e-03 5.792966258418508901e-03 5.254945656270193152e-03 4.855943711202315508e-03 4.593581288049148996e-03 4.462525656880766099e-03 4.454513328957890664e-03 4.558646332342428283e-03 4.761908583174437153e-03 5.049826451408924444e-03 5.407191653759638866e-03 5.818772308376688601e-03 6.269954497889479970e-03 6.747276809097326432e-03 7.238839741766495833e-03 7.734587817800853311e-03 8.226473450722559741e-03 8.708518159058127941e-03 9.176789288023401436e-03 9.629310125018483713e-03 1.006591924808500869e-02 1.048809205914903037e-02 1.089873442114107881e-02 1.130195560808484184e-02 1.170282566679588243e-02 1.210712090717883452e-02 1.252106060484563070e-02 1.295103805227143003e-02 1.340334970618053956e-02 1.388392717115040711e-02 1.439807791554935726e-02 1.495024169670956110e-02 1.554377043950867614e-02 1.618073955825499385e-02 1.686179828956393956e-02 1.758606545667288842e-02 1.835107526211648618e-02 1.915277536008442791e-02 1.998557683191376846e-02 2.084245306652317969e-02 2.171508222242361785e-02 2.259402616419130955e-02 2.346893768649143189e-02 2.432878752290152519e-02 2.516210304190310762e-02 2.595721152925376668e-02 2.670248235715518351e-02 2.738656393287224045e-02 2.799861289311157686e-02 2.852851438262569983e-02 2.896709328491821681e-02 2.930631686811051642e-02 2.953948943222062945e-02 2.966143921405874073e-02 2.966869710160780632e-02 2.955966577441698773e-02 2.933477692841146567e-02 2.899663352416058382e-02 2.855013379460250716e-02 2.800257427574795108e-02 2.736373039817738967e-02 2.664591482669573241e-02 2.586401478786539906e-02 2.503550835133645791e-02 2.418045359163382979e-02 2.332143104807458955e-02 2.248339699508505179e-02 2.169337330509486100e-02 2.097986437312542030e-02 2.037186443743947695e-02 1.989731800656834027e-02 1.958094317760515624e-02 1.944143751434185274e-02 1.948825481709726137e-02 1.971833396123982146e-02 2.011331310616524398e-02 2.063779921687697999e-02 2.123913686159452016e-02 2.184884670939236939e-02
3.134918307690132133e-02 3.220372767740091458e-02 3.252603423104248603e-02 3.237465245015243992e-02 3.181223534559012717e-02 3.090404789516925169e-02 2.971610433197778914e-02 2.831304268409975955e-02 2.675592335878797245e-02 2.510019833270640474e-02 2.339411517446835995e-02 2.167777931455368637e-02 1.998299909692343584e-02 1.833390202933630683e-02 1.674817283420504746e-02 1.523866137951433199e-02 1.381506578154947928e-02 1.248541730187656927e-02 1.125716525161558207e-02 1.013775822462891635e-02 9.134718393907828235e-03 8.255289857843151405e-03 7.505799365438732725e-03 6.890894262157141320e-03 6.412819367088424052e-03 6.070866643778293978e-03 5.861086696278893643e-03 5.776298828376651151e-03 5.806386435008172031e-03 5.938825040572292061e-03 6.159366341456001814e-03 6.452794206021460720e-03 6.803675290020880922e-03 7.197043098345196760e-03 7.618974730598602162e-03 8.057039687180220927e-03 8.500616951722612946e-03 8.941088668375405182e-03 9.371925965844751100e-03 9.788685546193599124e-03 1.018893563768556026e-02 1.057212793415545499e-02 1.093942918376922951e-02 1.129352289234198531e-02 1.163838868172595992e-02 1.197906450418489976e-02 1.232139531699971528e-02 1.267177101131498895e-02 1.303685632334361522e-02 1.342331602477536169e-02 1.383753972646031838e-02 1.428537192243768683e-02 1.477185420447001130e-02 1.530098763274217837e-02 1.587552381563079804e-02 1.649679314112818124e-02 1.716457771022332143e-02 1.787703485364928666e-02 1.863067479134935742e-02 1.942039324747474316e-02 2.023955696282350725e-02 2.108013737415469560e-02 2.193288554772829246e-02 2.278753997732151787e-02 2.363305819214944758e-02 2.445786325923611157e-02 2.525009709644934416e-02 2.599787385019074193e-02 2.668952820960466404e-02 2.731385519657481692e-02 2.786033948145312869e-02 2.831937346654359033e-02 2.868246414714099857e-02 2.894242905981402048e-02 2.909358148144500222e-02 2.913190454040989405e-02 2.905521320388523496e-02 2.886330244152526467e-02 2.855807951694277688e-02 2.814367861504741414e-02 2.762655708799584622e-02 2.701557448576725334e-02 2.632205779672115026e-02 2.555985787814483295e-02 2.474540100960066075e-02 2.389773317354572033e-02 2.303854003470072465e-02 2.219210033695954293e-02 2.138509473810839764e-02 2.064615095737564951e-02 2.000497152367520376e-02 1.949088193831115257e-02 1.913067855317710994e-02 1.894576605443684322e-02 1.894875424388784216e-02 1.913989978567454814e-02 1.950396172558929719e-02 2.000810446208550059e-02 2.060136783550214207e-02 2.121593757027077573e-02
3.154720544271234078e-02 3.253429401304892832e-02 3.300026745082092205e-02 3.300187235035496186e-02 3.259940439799292183e-02 3.185520945527637454e-02 3.083187687792303400e-02 2.959024435792627708e-02 2.818739928794707431e-02 2.667490516762301145e-02 2.509748362921003506e-02 2.349233256175121271e-02 2.188916338055599264e-02 2.031091721665276642e-02 1.877500231607056799e-02 1.729481337579127920e-02 1.588126573397060856e-02 1.454410410933730351e-02 1.329281351413407267e-02 1.213704862749097335e-02 1.108658731410828990e-02 1.015088904052921862e-02 9.338390706580955436e-03 8.655697150872996778e-03 8.106821603784555505e-03 7.692606194320314450e-03 7.410410637052371879e-03 7.254106951871421710e-03 7.214368831434595300e-03 7.279204334168460321e-03 7.434655374533282075e-03 7.665578643498896678e-03 7.956428165827955298e-03 8.291975314464244615e-03 8.657922551335505215e-03 9.041387805450050094e-03 9.431253985452719979e-03 9.818391013439781503e-03 1.019576568040590075e-02 1.055845818650468643e-02 1.090360450595619438e-02 1.123028185377952098e-02 1.153935154317806827e-02 1.183327019567763372e-02 1.211587715139748021e-02 1.239216336967589004e-02 1.266802529692790183e-02 1.295000617750897455e-02 1.324502707517721638e-02 1.356011036850531676e-02 1.390209953433066414e-02 1.427738043694220908e-02 1.469161085180403781e-02 1.514946630011494016e-02 1.565441118499723977e-02 1.620850446962062916e-02 1.681224856621971880e-02 1.746448866620840118e-02 1.816236751664641186e-02 1.890133784258392347e-02 1.967523152998260083e-02 2.047638166967118839e-02 2.129579095812732595e-02 2.212333802793730458e-02 2.294801220356387089e-02 2.375816698389391843e-02 2.454178315858875775e-02 2.528673369255536943e-02 2.598104412717714556e-02 2.661314399725003832e-02 2.717210641693504000e-02 2.764787435993723563e-02 2.803147312388935830e-02 2.831520897249435037e-02 2.849285401208559096e-02 2.855981707958080151e-02 2.851329997128809399e-02 2.835243797344411121e-02 2.807842366422821923e-02 2.769461364488139121e-02 2.720661943526596696e-02 2.662238620430931388e-02 2.595226581267755239e-02 2.520909264932613345e-02 2.440826990219239004e-02 2.356786732479436430e-02 2.270871592900894700e-02 2.185445765970991244e-02 2.103146874635294580e-02 2.026852876545794102e-02 1.959606560224108965e-02 1.904479007672930241e-02 1.864356938014735676e-02 1.841649886968476854e-02 1.837932178911457631e-02 1.853558522636955183e-02 1.887313547507018033e-02 1.936165075479273287e-02 1.995180897536193154e-02 2.057638954242116056e-02
3.175514533355996982e-02 3.287602006329245347e-02 3.348664849478593525e-02 3.364189041360474142e-02 3.339963364476149915e-02 3.281930397463711513e-02 3.196012828811713169e-02 3.087927683983064664e-02 2.963006416876948212e-02 2.826041720498829318e-02 2.681180854840458858e-02 2.531879678368216882e-02 2.380922196400954427e-02 2.230499418822287638e-02 2.082331410017272677e-02 1.937810029697734776e-02 1.798138261513481870e-02 1.664445045535651105e-02 1.537860908329115317e-02 1.419547678666209858e-02 1.310683542582659344e-02 1.212411399077557156e-02 1.125763173105350651e-02 1.051575068638929342e-02 9.904086578493778367e-03 9.424904411407213425e-03 9.076785944319225655e-03 8.854608039953958468e-03 8.749822597044714864e-03 8.750988600300530981e-03 8.844480549424335938e-03 9.015287317884194962e-03 9.247819869020566450e-03 9.526661151690353491e-03 9.837211788308136001e-03 1.016620612019392307e-02 1.050209135839520226e-02 1.083527616933744817e-02 1.115826357487601471e-02 1.146568710265084140e-02 1.175426971744990279e-02 1.202272335141481643e-02 1.227160387215743206e-02 1.250313290605009099e-02 1.272099465427616038e-02 1.293011307815451587e-02 1.313641280114156290e-02 1.334656587098139759e-02 1.356772615132294246e-02 1.380725350218541675e-02 1.407243093561679793e-02 1.437017941150495019e-02 1.470677663118273061e-02 1.508758781635836932e-02 1.551681773603525230e-02 1.599729389273442728e-02 1.653029059234254958e-02 1.711540249376405226e-02 1.775047419271099172e-02 1.843158960671588062e-02 1.915312168588080913e-02 1.990783964318257326e-02 2.068706786192692909e-02 2.148088822905279416e-02 2.227837609080828007e-02 2.306785942673370698e-02 2.383719114578383702e-02 2.457402546536789287e-02 2.526609090303124847e-02 2.590145422218044502e-02 2.646877146873764797e-02 2.695752379989216005e-02 2.735823699048300917e-02 2.766268423713555413e-02 2.786407217979446072e-02 2.795721002578235512e-02 2.793866147864550176e-02 2.780687910450178879e-02 2.756232112571607371e-02 2.720755172667520608e-02 2.674732799832384503e-02 2.618867958472737706e-02 2.554099039515174766e-02 2.481609415460214046e-02 2.402839491547015260e-02 2.319501686375467428e-02 2.233597123991717948e-02 2.147429890183375281e-02 2.063610430706098661e-02 1.985034478997324547e-02 1.914819006244279642e-02 1.856174237884106876e-02 1.812193657388025403e-02 1.785554855257170601e-02 1.778144019835797493e-02 1.790642989921819792e-02 1.822142524850868181e-02 1.869858092811336331e-02 1.929016003659995288e-02 1.992946672283557943e-02
3.197050348375415907e-02 3.322560377285703470e-02 3.398096707736905642e-02 3.428948979811240888e-02 3.420661224660817568e-02 3.378885278944796650e-02 3.309215272044929712e-02 3.217016073175712337e-02 3.107262795602721769e-02 2.984410100395708254e-02 2.852308002416490545e-02 2.714174946528085872e-02 2.572630084945654733e-02 2.429776951659870510e-02 2.287322459813038306e-02 2.146710243220022185e-02 2.009246670766859019e-02 1.876201062357128746e-02 1.748867569782534478e-02 1.628583381300545418e-02 1.516705015562602038e-02 1.414550484465671581e-02 1.323319385402436932e-02 1.244005185695194575e-02 1.177313981695982462e-02 1.123601993159525740e-02 1.082840404265233980e-02 1.054611560703002000e-02 1.038135812631907351e-02 1.032324273403788240e-02 1.035850048972667206e-02 1.047229344467581064e-02 1.064904171217995882e-02 1.087319784654988859e-02 1.112991981204260877e-02 1.140561492273285162e-02 1.168834577744202498e-02 1.196810339151581012e-02 1.223696186323773756e-02 1.248913344869848410e-02 1.272094384407826233e-02 1.293074593821467305e-02 1.311878736169281613e-02 1.328704367296965928e-02 1.343902560237320715e-02 1.357956582532260197e-02 1.371458849511562883e-02 1.385086334994793493e-02 1.399574564692509897e-02 1.415690342701014792e-02 1.434203457684963927e-02 1.455857766345574657e-02 1.481342235360477190e-02 1.511262711764827307e-02 1.546115355098208466e-02 1.586262772000740159e-02 1.631913919188764453e-02 1.683108766971906645e-02 1.739708539017766065e-02 1.801392076585275545e-02 1.867658543203496932e-02 1.937836325910895219e-02 2.011097643543999225e-02 2.086478080500048238e-02 2.162900056048928932e-02 2.239199131055916864e-02 2.314152046989188458e-02 2.386505473495537100e-02 2.455004587611507583e-02 2.518420791546870444e-02 2.575578068364503190e-02 2.625377651119197020e-02 2.666820823316089564e-02 2.699029767750537809e-02 2.721266437197260302e-02 2.732949443969831180e-02 2.733668975305104248e-02 2.723199765174534950e-02 2.701512223066597843e-02 2.668781968473811494e-02 2.625398267046624365e-02 2.571972203775612850e-02 2.509345803224568086e-02 2.438603584603643570e-02 2.361087992682764369e-02 2.278419449689778054e-02 2.192520044915398716e-02 2.105636776558702031e-02 2.020355671117075175e-02 1.939592415885485824e-02 1.866539548216343200e-02 1.804546976606799177e-02 1.756914773723491571e-02 1.726587932864956723e-02 1.715763573218739499e-02 1.725449428671389784e-02 1.755040525920458297e-02 1.801996951686377427e-02 1.861698870187360536e-02 1.927522791159805987e-02
3.219052509046604199e-02 3.357955088189667342e-02 3.447890403904411288e-02 3.493945143641449119e-02 3.501415959206871653e-02 3.475666693499805671e-02 3.421972013228249260e-02 3.345360305676406409e-02 3.250471846754323518e-02 3.141448827867004967e-02 3.021871061337748701e-02 2.894745155482807489e-02 2.762546761216233202e-02 2.627306988363039761e-02 2.490727260810415844e-02 2.354303194060404503e-02 2.219438070663586754e-02 2.087529746167396394e-02 1.960020300364054280e-02 1.838404217499952850e-02 1.724197231603041142e-02 1.618873386532966238e-02 1.523781785243841225e-02 1.440056601778275970e-02 1.368534049050661866e-02 1.309688195461067121e-02 1.263594129063646578e-02 1.229922577509669213e-02 1.207965491917510105e-02 1.196688097651548224e-02 1.194800129620795723e-02 1.200837705378193787e-02 1.213247487839436319e-02 1.230466108511185999e-02 1.250989777254353334e-02 1.273431116361018606e-02 1.296562155196089375e-02 1.319343890242133735e-02 1.340943782282808319e-02 1.360743061973671356e-02 1.378335840973941850e-02 1.393521891809331240e-02 1.406294672861836161e-02 1.416825822710792576e-02 1.425446994514784939e-02 1.432629589045019552e-02 1.438962700408012545e-02 1.445129425264329685e-02 1.451881609570561393e-02 1.460013114972098791e-02 1.470331772434021848e-02 1.483630339931197965e-02 1.500656974052409602e-02 1.522085936029280231e-02 1.548489449917394602e-02 1.580311781328917406e-02 1.617846678404840158e-02 1.661219289252219983e-02 1.710373530971709063e-02 1.765065639745296705e-02 1.824864301034928235e-02 1.889157379631733677e-02 1.957164885306838034e-02 2.027957466028659436e-02 2.100479454845629451e-02 2.173575332992224232e-02 2.246018418500775327e-02 2.316540638365557903e-02 2.383862371981371187e-02 2.446721535267895598e-02 2.503901277590886432e-02 2.554255859281387431e-02 2.596734445037778352e-02 2.630402675821702507e-02 2.654461967519416640e-02 2.668266537839907027e-02 2.671338203081224938e-02 2.663379041651907711e-02 2.644282125162278341e-02 2.614140703173674710e-02 2.573256515061965455e-02 2.522148283754585552e-02 2.461561861373004478e-02 2.392483808398681785e-02 2.316160159146066211e-02 2.234121417931454398e-02 2.148213035656916167e-02 2.060627359308265030e-02 1.973928166544094975e-02 1.891052730705253607e-02 1.815270083461564821e-02 1.750070039395963672e-02 1.698958949135085175e-02 1.665148630531770521e-02 1.651146494539522391e-02 1.658285435386431389e-02 1.686263549837874534e-02 1.732783284240597618e-02 1.793374798158450453e-02 1.861455105998327531e-02
3.241221518487422820e-02 3.393419513966480089e-02 3.497605521704274384e-02 3.558657948548436117e-02 3.581624927382884988e-02 3.571586566760888426e-02 3.533508466071808712e-02 3.472099050542032384e-02 3.391685474688303781e-02 3.296122548729776142e-02 3.188745871599050347e-02 3.072374412726482443e-02 2.949360308260829538e-02 2.821676285358447334e-02 2.691025548287388769e-02 2.558956265359160764e-02 2.426963287469864616e-02 2.296562951409449743e-02 2.169331855151472241e-02 2.046906305247307017e-02 1.930944828679976091e-02 1.823061036657998638e-02 1.724737747919636785e-02 1.637235292677160711e-02 1.561507130919386789e-02 1.498134322751585451e-02 1.447287232653646227e-02 1.408718663524004613e-02 1.381788140238336682e-02 1.365513084594156649e-02 1.358639782650077413e-02 1.359725676885216450e-02 1.367224600876730013e-02 1.379567803135085119e-02 1.395235511976075649e-02 1.412815897011794955e-02 1.431050205805685198e-02 1.448864365883383715e-02 1.465388357406844505e-02 1.479965204823518836e-02 1.492151594889331960e-02 1.501712015328164097e-02 1.508608030634102197e-02 1.512983958199876772e-02 1.515149845179672786e-02 1.515562319130988461e-02 1.514803621487877464e-02 1.513558948010616280e-02 1.512592121688268593e-02 1.512719611944076184e-02 1.514782984642771592e-02 1.519620009721721170e-02 1.528034850123244706e-02 1.540767983004878543e-02 1.558466731524540960e-02 1.581657478278656118e-02 1.610720754978968092e-02 1.645870427649357218e-02 1.687138103973844991e-02 1.734363676746640895e-02 1.787192600212987939e-02 1.845080107089023744e-02 1.907302158091729594e-02 1.972972522318465483e-02 2.041065060964816769e-02 2.110440061821182781e-02 2.179873363935533673e-02 2.248087018791525976e-02 2.313780338597065320e-02 2.375660355374997063e-02 2.432470923584207495e-02 2.483019912602012907e-02 2.526204128569777344e-02 2.561031762473705078e-02 2.586642278885594934e-02 2.602323745333824656e-02 2.607527674867961276e-02 2.601881542533955594e-02 2.585199274484532850e-02 2.557490229586585964e-02 2.518967518450562423e-02 2.470056924711701990e-02 2.411408145854052748e-02 2.343910413897818887e-02 2.268714545648438385e-02 2.187262755985097326e-02 2.101325717519303415e-02 2.013042955080515672e-02 1.924957514297402639e-02 1.840029221062878736e-02 1.761603894625932143e-02 1.693310924809489706e-02 1.638862211735934646e-02 1.601735596028717665e-02 1.584748162017329473e-02 1.589557526163575679e-02 1.616164230554206424e-02 1.662511632959325428e-02 1.724277009868516522e-02 1.794913360092999233e-02
3.263236129323573292e-02 3.428572387489902534e-02 3.546795827748288471e-02 3.622572690159212710e-02 3.660702999295728510e-02 3.665988849545120942e-02 3.643098304141596105e-02 3.596436935870880869e-02 3.530040394089446754e-02 3.447500394701144555e-02 3.351932948461226053e-02 3.245991925170989972e-02 3.131924313593466985e-02 3.011657240436601060e-02 2.886902300485555406e-02 2.759260848982621195e-02 2.630314750043017541e-02 2.501690196543042422e-02 2.375086817744948009e-02 2.252269515412764003e-02 2.135025585443646456e-02 2.025094131025419186e-02 1.924078133514915689e-02 1.833351490994301544e-02 1.753973633703964294e-02 1.686622916184632101e-02 1.631557051287850502e-02 1.588604859643687195e-02 1.557189255931077168e-02 1.536377450960475614e-02 1.524951464202602136e-02 1.521490579416988169e-02 1.524457354354430243e-02 1.532279934959375825e-02 1.543425275703261094e-02 1.556459956428515347e-02 1.570097226014632516e-02 1.583230451372505052e-02 1.594954208981132562e-02 1.604574840135094410e-02 1.611612482626565215e-02 1.615796500024587953e-02 1.617055962598182642e-02 1.615506481549305526e-02 1.611434328387744905e-02 1.605278430565482486e-02 1.597610552443006968e-02 1.589113764566527434e-02 1.580559182994049905e-02 1.572780926962305190e-02 1.566649295416401230e-02 1.563042293326020321e-02 1.562815833395718793e-02 1.566773176506602513e-02 1.575634426286318807e-02 1.590007124805923114e-02 1.610359170044609045e-02 1.636995356456924164e-02 1.670038801559807148e-02 1.709418352648806039e-02 1.754862776248350062e-02 1.805902146030495189e-02 1.861876406174346396e-02 1.921950648888495414e-02 1.985136259046420271e-02 2.050316787853335987e-02 2.116277246815178800e-02 2.181735468969048242e-02 2.245374253761479172e-02 2.305873168566717826e-02 2.361939089660665056e-02 2.412334794040990604e-02 2.455905131769185734e-02 2.491600497143389714e-02 2.518497468741928355e-02 2.535816608891523077e-02 2.542937520463456336e-02 2.539411381483042823e-02 2.524971350536586376e-02 2.499541492117074090e-02 2.463245231795927956e-02 2.416414806807621815e-02 2.359603664405118470e-02 2.293604132997646705e-02 2.219472699421272399e-02 2.138564506685439529e-02 2.052576791769686673e-02 1.963597467752584494e-02 1.874149658514592115e-02 1.787215937626850798e-02 1.706218403771386435e-02 1.634924909101646145e-02 1.577251478386305569e-02 1.536940645052414095e-02 1.517118279030777589e-02 1.519766351091190321e-02 1.545187680384907392e-02 1.591565923451371267e-02 1.654723744706312893e-02 1.728146962709493570e-02
3.284756305718037478e-02 3.463020863748029338e-02 3.595012241751952692e-02 3.685182144392688819e-02 3.738084433992654859e-02 3.758250259714749492e-02 3.750062617765917428e-02 3.717641673389592699e-02 3.664752816279895353e-02 3.594747904682460415e-02 3.510546421528361327e-02 3.414657868608703822e-02 3.309240721401787017e-02 3.196187921120748066e-02 3.077225271944200591e-02 2.954007836527959910e-02 2.828200498292680193e-02 2.701531834926185899e-02 2.575814637222706427e-02 2.452931107040214748e-02 2.334785383523799510e-02 2.223230112775204798e-02 2.119976915705764145e-02 2.026502496684541577e-02 1.943962515777752920e-02 1.873124108476245317e-02 1.814325205727674792e-02 1.767464997897650117e-02 1.732025654423639469e-02 1.707121508500946891e-02 1.691568997279783992e-02 1.683969102249859712e-02 1.682793912692687188e-02 1.686469987579245627e-02 1.693452986875145991e-02 1.702290112618131887e-02 1.711668851507233691e-02 1.720452090251119517e-02 1.727700773174762131e-02 1.732685893982672740e-02 1.734891836601363743e-02 1.734013010286095807e-02 1.729945468861900440e-02 1.722774854265430103e-02 1.712761629658650364e-02 1.700324215282812690e-02 1.686020341751848922e-02 1.670526709176036601e-02 1.654616896669366607e-02 1.639137410184057439e-02 1.624981787520250742e-02 1.613062793306755532e-02 1.604282923319184581e-02 1.599503678895162692e-02 1.599514342382507559e-02 1.605001249761715126e-02 1.616518777896554585e-02 1.634463401948067079e-02 1.659052200063940857e-02 1.690307067302452768e-02 1.728045647428864615e-02 1.771879619730165958e-02 1.821220528077754225e-02 1.875292864457997130e-02 1.933153676560869783e-02 1.993717609914196637e-02 2.055786055397201828e-02 2.118078968226562442e-02 2.179267949088313505e-02 2.238009309013727632e-02 2.292976043071733028e-02 2.342887876996815888e-02 2.386538792388188945e-02 2.422821656283331848e-02 2.450749768532445999e-02 2.469475298259089791e-02 2.478304725121432267e-02 2.476711559798524392e-02 2.464346825805600882e-02 2.441048075426030528e-02 2.406848107372540346e-02 2.361985042932358142e-02 2.306915936042240253e-02 2.242336493681702098e-02 2.169209511445695238e-02 2.088803912710942429e-02 2.002744351452421384e-02 1.913067720440764577e-02 1.822277286049241510e-02 1.733377702556430922e-02 1.649865886768233508e-02 1.575646041765296768e-02 1.514835922065092128e-02 1.471440587658255118e-02 1.448893233802270135e-02 1.449499641158025209e-02 1.473865056048139638e-02 1.520413663999145570e-02 1.585113098313180660e-02 1.661480475765699308e-02
3.305426799094660778e-02 3.496364017037865979e-02 3.641806041612540012e-02 3.745989197950781030e-02 3.813224591948102815e-02 3.847780690112953539e-02 3.853768614300709383e-02 3.835040663062546512e-02 3.795112617025031554e-02 3.737118488133427813e-02 3.663802618064748023e-02 3.577549017112453822e-02 3.480442538621302678e-02 3.374351980522723865e-02 3.261022350136024567e-02 3.142162739085246903e-02 3.019517471080098922e-02 2.894910987070658040e-02 2.770260737470695012e-02 2.647556584989196882e-02 2.528809402517570581e-02 2.415975288716373792e-02 2.310864777181148577e-02 2.215048259439355086e-02 2.129769298218150975e-02 2.055876424119411003e-02 1.993781464248139609e-02 1.943448811279503696e-02 1.904415923865429225e-02 1.875841487992091494e-02 1.856574721881188578e-02 1.845237685507613787e-02 1.840312240749646111e-02 1.840224277533780706e-02 1.843419561685726363e-02 1.848427607951748028e-02 1.853911940703621350e-02 1.858706711627980401e-02 1.861840778060766879e-02 1.862551004091771156e-02 1.860286799850772652e-02 1.854707866340816330e-02 1.845676870409708459e-02 1.833248428801028881e-02 1.817655402042525278e-02 1.799293137365684872e-02 1.778701986769181190e-02 1.756548181205504558e-02 1.733602976049773356e-02 1.710719902695749181e-02 1.688809968661858160e-02 1.668814742315257588e-02 1.651677431293541512e-02 1.638312301920903311e-02 1.629573067800043490e-02 1.626221167784042826e-02 1.628895117791298933e-02 1.638082315140675788e-02 1.654094758851353680e-02 1.677050095709263153e-02 1.706859198478743317e-02 1.743221140346512890e-02 1.785625982173725743e-02 1.833365288229374043e-02 1.885549792889905374e-02 1.941133214478535721e-02 1.998940899485394593e-02 2.057701807128264893e-02 2.116082313864707867e-02 2.172720412590312816e-02 2.226259069790859774e-02 2.275377747312236007e-02 2.318821356783019871e-02 2.355426165511649572e-02 2.384142397100220273e-02 2.404053467149844248e-02 2.414391978115320095e-02 2.414552793973027273e-02 2.404103759132210361e-02 2.382794951049376289e-02 2.350567783680901010e-02 2.307565799558008654e-02 2.254149536920829061e-02 2.190918286654279859e-02 2.118741603894664163e-02 2.038802730892552706e-02 1.952654137020579453e-02 1.862281678199186399e-02 1.770168056303866172e-02 1.679338403322219384e-02 1.593361905602275891e-02 1.516275806588544828e-02 1.452395962305349369e-02 1.405986650374934158e-02 1.380786046857458184e-02 1.379422757166200164e-02 1.402804763211734120e-02 1.449597839803868152e-02 1.515915627364019039e-02 1.595306945290595954e-02
3.324881215653554406e-02 3.528196661433011250e-02 3.686732218071134271e-02 3.804509462517706442e-02 3.885601489542320208e-02 3.934023358569034567e-02 3.953628018174301650e-02 3.948017323411482510e-02 3.920477326621088499e-02 3.873944870627603343e-02 3.811008834849154842e-02 3.733944789086057064e-02 3.644777177725554151e-02 3.545359390077351680e-02 3.437459838249450755e-02 3.322841743912676588e-02 3.203325621128085693e-02 3.080826054176408896e-02 2.957357819143643929e-02 2.835010220164925834e-02 2.715892316212391647e-02 2.602055172619949924e-02 2.495400068361123408e-02 2.397583401995745378e-02 2.309929567185616331e-02 2.233362127481960946e-02 2.168361245634425546e-02 2.114951837928432180e-02 2.072722912797229922e-02 2.040874731515949364e-02 2.018287457609562949e-02 2.003603271027214194e-02 1.995313621416974423e-02 1.991844185647416443e-02 1.991631781713153540e-02 1.993189516646620002e-02 1.995158410504765945e-02 1.996345369599851829e-02 1.995748549763269597e-02 1.992571842744084165e-02 1.986230501043405317e-02 1.976349889679082997e-02 1.962759123498539551e-02 1.945481008083210783e-02 1.924719322334231264e-02 1.900844111627168070e-02 1.874375334636493862e-02 1.845964944683761710e-02 1.816377299836760550e-02 1.786467692212413347e-02 1.757158770002913845e-02 1.729414696439892513e-02 1.704213044593403878e-02 1.682514655494477332e-02 1.665231971003878694e-02 1.653196663838902777e-02 1.647127687743644292e-02 1.647601117300570919e-02 1.655023295181656459e-02 1.669608817779340282e-02 1.691364746628573612e-02 1.720082133356202331e-02 1.755335515421173331e-02 1.796490526352333486e-02 1.842719229909968795e-02 1.893022298237201362e-02 1.946256766361690455e-02 2.001167847274696807e-02 2.056423197100993444e-02 2.110648068669750479e-02 2.162459955628917574e-02 2.210501569315719700e-02 2.253471266848293061e-02 2.290150328008382086e-02 2.319426739564124651e-02 2.340315383351078762e-02 2.351974749212064689e-02 2.353720530105544301e-02 2.345036737581468120e-02 2.325585335274941989e-02 2.295215847699322298e-02 2.253976952213179730e-02 2.202132639063793251e-02 2.140185979487605264e-02 2.068913615402824882e-02 1.989413389893815789e-02 1.903165576099444950e-02 1.812104391439623222e-02 1.718690485692753872e-02 1.625966875039796394e-02 1.537571267102144992e-02 1.457669256542584550e-02 1.390769692948050189e-02 1.341391322020343835e-02 1.313573757219220831e-02 1.310266724264813609e-02 1.332681224897549511e-02 1.379726476117532075e-02 1.447664747058443474e-02 1.530079158118847864e-02
3.342746424892886065e-02 3.558113359935239500e-02 3.729352871080142406e-02 3.860273802720204372e-02 3.954717174095693372e-02 4.016454735541282600e-02 4.049095268565953976e-02 4.056007309388973137e-02 4.040266166886305466e-02 4.004630806528073489e-02 3.951552642421005124e-02 3.883214114800580957e-02 3.801590909518470091e-02 3.708528544836016405e-02 3.605822322614021108e-02 3.495289495206573699e-02 3.378823802231506468e-02 3.258424946825200230e-02 3.136198705471431036e-02 3.014326825087340275e-02 2.895009341476416712e-02 2.780385173304481677e-02 2.672439512206459256e-02 2.572908318859798080e-02 2.483190831065101162e-02 2.404280178599403281e-02 2.336719979837560690e-02 2.280591451751744561e-02 2.235531650762530645e-02 2.200779677130994261e-02 2.175244682344498748e-02 2.157587764671391531e-02 2.146309455899376994e-02 2.139835319679708747e-02 2.136593818522013188e-02 2.135082610422454202e-02 2.133921404902030389e-02 2.131891161590385164e-02 2.127960613043987023e-02 2.121301817598791883e-02 2.111296757715386968e-02 2.097536992982235865e-02 2.079818159973373728e-02 2.058130776334635148e-02 2.032648425986334148e-02 2.003714027151680052e-02 1.971824548335145144e-02 1.937614259936013689e-02 1.901836403374687623e-02 1.865343033317479193e-02 1.829062746997421607e-02 1.793976060541935952e-02 1.761088324951267867e-02 1.731400287673642152e-02 1.705876685320241448e-02 1.685413574683329585e-02 1.670805438089663711e-02 1.662713391839134788e-02 1.661636035790335295e-02 1.667884564374875686e-02 1.681563683203479362e-02 1.702559630394644141e-02 1.730536203039045526e-02 1.764939177835396153e-02 1.805008951808658585e-02 1.849800684129759842e-02 1.898210759311852805e-02 1.949008065254947270e-02 2.000868412496372567e-02 2.052410413210645213e-02 2.102231267156468020e-02 2.148941129498677799e-02 2.191195020009469030e-02 2.227721536756395448e-02 2.257347933735915149e-02 2.279021400491229588e-02 2.291826648953938436e-02 2.295000190051798769e-02 2.287942001691715618e-02 2.270225683857424182e-02 2.241608687533495209e-02 2.202044783462353203e-02 2.151701540872308013e-02 2.090986067825172795e-02 2.020582363748871235e-02 1.941502960195057650e-02 1.855155564964929005e-02 1.763421605753376364e-02 1.668737420318299955e-02 1.574160293252387793e-02 1.483391419836624717e-02 1.400718526953507320e-02 1.330836649069914480e-02 1.278512529190199698e-02 1.248082165977483331e-02 1.242813693116675590e-02 1.264221186762506423e-02 1.311459883372272789e-02 1.380944979735391348e-02 1.466298929149980126e-02
3.358647140604003462e-02 3.585712473681768042e-02 3.769240527673023422e-02 3.912830694212173638e-02 4.020098878884796612e-02 4.094584255566066644e-02 4.139665567791141199e-02 4.158494714504319678e-02 4.153954269637098740e-02 4.128643224768565462e-02 4.084891914001002183e-02 4.024803342292048586e-02 3.950314670650414972e-02 3.863270022929348596e-02 3.765494458140666856e-02 3.658859004104841189e-02 3.545327929504244607e-02 3.426981651074650220e-02 3.306011501632043215e-02 3.184685725947877105e-02 3.065289272311900320e-02 2.950042965511922091e-02 2.841010205698618271e-02 2.740001112841110656e-02 2.648484697832611048e-02 2.567518948934742820e-02 2.497706642634319255e-02 2.439181472118505736e-02 2.391625259569569659e-02 2.354313265750946488e-02 2.326181595659056189e-02 2.305908885312532575e-02 2.292003997977198892e-02 2.282892207577898180e-02 2.276993937125876277e-02 2.272792104149140568e-02 2.268886098193771683e-02 2.264032089776099946e-02 2.257170597767949038e-02 2.247442996202428031e-02 2.234198977065017522e-02 2.216996998894303628e-02 2.195599546649897732e-02 2.169964699583521936e-02 2.140235123776565440e-02 2.106725226304614201e-02 2.069906862434105557e-02 2.030393696640822934e-02 1.988924095192925665e-02 1.946342280745308462e-02 1.903577413796359724e-02 1.861620286285549722e-02 1.821497420888549060e-02 1.784242562981530264e-02 1.750865820844702339e-02 1.722321033686197503e-02 1.699472295439192690e-02 1.683060893371916486e-02 1.673674185751964152e-02 1.671718093309998779e-02 1.677394875056124543e-02 1.690687678387327308e-02 1.711353000228664489e-02 1.738921702214124218e-02 1.772708645288206819e-02 1.811830419303695275e-02 1.855230114559452970e-02 1.901707675963957428e-02 1.949954135078042078e-02 1.998587941548392657e-02 2.046191698304427112e-02 2.091347810296131579e-02 2.132671841454714459e-02 2.168842697286222157e-02 2.198629079346357124e-02 2.220911976619292447e-02 2.234703269032276701e-02 2.239160837833074902e-02 2.233600935742111049e-02 2.217508998942560594e-02 2.190550604879491770e-02 2.152584886858342414e-02 2.103683346643003479e-02 2.044157514029500133e-02 1.974599028636192521e-02 1.895935070254690588e-02 1.809500115497793965e-02 1.717121150388925890e-02 1.621207196272243453e-02 1.524825162702273321e-02 1.431733360484349626e-02 1.346333784788302824e-02 1.273498959852906176e-02 1.218235181593111879e-02 1.185167977435531636e-02 1.177879876249314853e-02 1.198187625117163452e-02 1.245495675587334448e-02 1.316378177122995256e-02 1.404504575529913479e-02
3.372210498713301002e-02 3.610600098549357484e-02 3.805981258120527677e-02 3.961748323403914418e-02 4.081299907427442947e-02 4.167953799500030698e-02 4.224872801609191875e-02 4.255008306190860567e-02 4.261067145108221599e-02 4.245504887159348012e-02 4.210545662549700086e-02 4.158225265408369009e-02 4.090451310594871159e-02 4.009072090432936469e-02 3.915944779985713886e-02 3.812993828025720844e-02 3.702251603124383922e-02 3.585875393600962413e-02 3.466137422322858319e-02 3.345387400046600374e-02 3.225990101494115303e-02 3.110243295407548805e-02 3.000283830567204713e-02 2.897991448663565089e-02 2.804900618721274663e-02 2.722130104286638042e-02 2.650338021480741144e-02 2.589707044104502462e-02 2.539960661656292737e-02 2.500407669857051055e-02 2.470009036595725849e-02 2.447459416495997853e-02 2.431275061409957430e-02 2.419880561309958183e-02 2.411688398035533032e-02 2.405167261314024307e-02 2.398897054560198555e-02 2.391610212518076317e-02 2.382220207926603536e-02 2.369838906499015935e-02 2.353784789384777767e-02 2.333584093923863484e-02 2.308966731151851359e-02 2.279858515935702379e-02 2.246370866616159007e-02 2.208788748019781950e-02 2.167557278859031517e-02 2.123267122754830816e-02 2.076638543951002738e-02 2.028503842422474390e-02 1.979787794813361521e-02 1.931485722836992144e-02 1.884638893251172967e-02 1.840307123678331172e-02 1.799538720537371614e-02 1.763338194121353772e-02 1.732632554792019886e-02 1.708237354770377955e-02 1.690823953859080589e-02 1.680889702520891801e-02 1.678732804768472489e-02 1.684433514007926611e-02 1.697843019178390048e-02 1.718580917475890160e-02 1.746041593360489821e-02 1.779409201981231245e-02 1.817680367085777737e-02 1.859693220320724968e-02 1.904161081882566400e-02 1.949708935176412694e-02 1.994910875124302971e-02 2.038326882389233582e-02 2.078537551862618543e-02 2.114175738772583815e-02 2.143954442840431684e-02 2.166690607916693656e-02 2.181324867414911189e-02 2.186937628076094167e-02 2.182762282574699647e-02 2.168196805963368279e-02 2.142815543516964072e-02 2.106383631496513281e-02 2.058877147797819052e-02 2.000512623410680840e-02 1.931789701157214309e-02 1.853550110546070204e-02 1.767054202720556508e-02 1.674072431834887006e-02 1.576982802983853058e-02 1.478856203955570929e-02 1.383500335571321432e-02 1.295421882130273240e-02 1.219660136947969126e-02 1.161450319326663358e-02 1.125698555723310401e-02 1.116296168665653621e-02 1.135361464757566816e-02 1.182551774102852914e-02 1.254607938959197491e-02 1.345256814601748264e-02
3.383070458794518176e-02 3.632393741162138340e-02 3.839177472055799872e-02 4.006616342969707145e-02 4.137900193850507780e-02 4.236136924227556361e-02 4.304287332142794908e-02 4.345117810906912181e-02 4.361175423195663009e-02 4.354787579326233060e-02 4.328085695856446341e-02 4.283049269138836102e-02 4.221564257603983850e-02 4.145487918718837594e-02 4.056711503260529428e-02 3.957212486714738187e-02 3.849089182349221816e-02 3.734572428155250035e-02 3.616011362703758919e-02 3.495832924410478132e-02 3.376477463191126377e-02 3.260315556879069682e-02 3.149553524690141409e-02 3.046136899322153535e-02 2.951661903099569648e-02 2.867304489773055132e-02 2.793774674117894402e-02 2.731300870291113528e-02 2.679645275581442679e-02 2.638147630129566643e-02 2.605791623200853432e-02 2.581286293659076914e-02 2.563154182514551169e-02 2.549818626136780148e-02 2.539684089557841043e-02 2.531205392271042645e-02 2.522943663345877940e-02 2.513608577236278729e-02 2.502087703024997306e-02 2.487464608341320715e-02 2.469027741673508400e-02 2.446272165461433473e-02 2.418896031183246850e-02 2.386793370977254025e-02 2.350044402782058145e-02 2.308904160617841067e-02 2.263789902986941896e-02 2.215267441333731643e-02 2.164036279400134710e-02 2.110913271069815925e-02 2.056814395218771463e-02 2.002734217119767762e-02 1.949722662371063467e-02 1.898858874106723951e-02 1.851222155301924729e-02 1.807860304873807819e-02 1.769756017263829362e-02 1.737792395722368918e-02 1.712718983305747122e-02 1.695119989096688720e-02 1.685386527566935452e-02 1.683694654638030405e-02 1.689990754823919930e-02 1.703985419093359197e-02 1.725156393240766597e-02 1.752760538116567360e-02 1.785854106895470514e-02 1.823320090411518352e-02 1.863900973058640193e-02 1.906235015579072628e-02 1.948894143310107158e-02 1.990421647973939986e-02 2.029368168464837016e-02 2.064324755272282930e-02 2.093952202786731470e-02 2.117006225660397756e-02 2.132358449552059984e-02 2.139013591300802097e-02 2.136123641597822628e-02 2.123000363204632229e-02 2.099128000732261926e-02 2.064178758230302002e-02 2.018034280776441480e-02 1.960816936328813390e-02 1.892934880688088017e-02 1.815144307357803924e-02 1.728630394113602961e-02 1.635104610558026431e-02 1.536909621356775252e-02 1.437113699430596185e-02 1.339564885447491228e-02 1.248863241270673635e-02 1.170202001849302009e-02 1.109032338311933576e-02 1.070529744273577763e-02 1.058886872115526352e-02 1.076521501074749476e-02 1.123347770668487247e-02 1.196282586335177534e-02 1.289123432250883008e-02
3.390871866556523923e-02 3.650725598072127737e-02 3.868450287460205306e-02 4.047047205798025293e-02 4.189506489851041460e-02 4.298737813485939419e-02 4.377513653005134231e-02 4.428430245584961261e-02 4.453889861620316526e-02 4.456105816949224030e-02 4.437129053712909194e-02 4.398892533051569631e-02 4.343267519674189059e-02 4.272124407184180184e-02 4.187390185328119380e-02 4.091094978849660335e-02 3.985401173082364634e-02 3.872610318129036944e-02 3.755145112461755197e-02 3.635506174428520393e-02 3.516205888591719675e-02 3.399684197199739910e-02 3.288213551149054420e-02 3.183802010374509744e-02 3.088104325160166697e-02 3.002350437202502831e-02 2.927299101247895705e-02 2.863221414815272925e-02 2.809915414441489789e-02 2.766749204372430729e-02 2.732726998452651018e-02 2.706570482180461687e-02 2.686807253339476564e-02 2.671858679888706317e-02 2.660120992814865581e-02 2.650035374349733741e-02 2.640144794481572715e-02 2.629137083332434149e-02 2.615875033498887836e-02 2.599415159650607723e-02 2.579017145987991255e-02 2.554146076321926750e-02 2.524469370490601411e-02 2.489850039578436758e-02 2.450337496410472105e-02 2.406156770802740999e-02 2.357696615876004806e-02 2.305496673208609973e-02 2.250233602696225660e-02 2.192705885185327469e-02 2.133816878273370188e-02 2.074555654228864288e-02 2.015975180019687063e-02 1.959167517938410763e-02 1.905235932420483100e-02 1.855264078274774034e-02 1.810282800937560235e-02 1.771235470696194345e-02 1.738943157026240707e-02 1.714071273048954971e-02 1.697099527260148219e-02 1.688297060636584357e-02 1.687704490798362655e-02 1.695124227838948686e-02 1.710119898182582351e-02 1.732025073175907579e-02 1.759960828375703445e-02 1.792861043364425699e-02 1.829503865019871042e-02 1.868547449601982297e-02 1.908567989533605305e-02 1.948098107594120262e-02 1.985663929786981446e-02 2.019819482461655130e-02 2.049177454423808248e-02 2.072435786955492687e-02 2.088399987502335270e-02 2.096001508889563936e-02 2.094313013678309951e-02 2.082561878613468573e-02 2.060143907151460591e-02 2.026639903929252154e-02 1.981838468771497663e-02 1.925768953864667732e-02 1.858748746849698055e-02 1.781448502931798350e-02 1.694977104603348148e-02 1.600984309642304940e-02 1.501772586730349204e-02 1.400400145266351808e-02 1.300745067005537429e-02 1.207487790316496071e-02 1.125960545026163766e-02 1.061815051904746454e-02 1.020482463990366601e-02 1.006447191446775170e-02 1.022423145159308266e-02 1.068585219516412360e-02 1.142037213122554934e-02 1.236663202770709596e-02
3.395274031439485946e-02 3.665245319071303021e-02 3.893441381331427809e-02 4.082677013000791943e-02 4.235752137175061161e-02 4.355389926177707927e-02 4.444187892663094275e-02 4.504586282212250103e-02 4.538856599525579322e-02 4.549111029389017041e-02 4.537331166358260504e-02 4.505412204863873393e-02 4.455216903598926970e-02 4.388632466213782113e-02 4.307623080454148212e-02 4.214271209210505853e-02 4.110801726500822734e-02 3.999584509113111169e-02 3.883113013376496281e-02 3.763958590318418340e-02 3.644702721082741792e-02 3.527851838463439554e-02 3.415741701693499749e-02 3.310440078599592717e-02 3.213657386298444246e-02 3.126674632042337337e-02 3.050296347630823343e-02 2.984833372852007186e-02 2.930116758879813474e-02 2.885540376695847065e-02 2.850126703086937677e-02 2.822608234272947630e-02 2.801516274949952812e-02 2.785269386542870915e-02 2.772255231335620310e-02 2.760901485649968831e-02 2.749733497994626477e-02 2.737418123152914051e-02 2.722794493880729277e-02 2.704893348093953195e-02 2.682946951677347633e-02 2.656391735028025905e-02 2.624865599276079639e-02 2.588201541601456435e-02 2.546418874534633545e-02 2.499712925985534198e-02 2.448443740091092030e-02 2.393123974516055130e-02 2.334405919142742980e-02 2.273067351048189272e-02 2.209995796796687326e-02 2.146170701307491269e-02 2.082643009620683411e-02 2.020511760231755854e-02 1.960897470105447959e-02 1.904912359822735421e-02 1.853627810657322225e-02 1.808039838967639631e-02 1.769033778222605172e-02 1.737349723957914635e-02 1.713550563944685537e-02 1.697994529452035925e-02 1.690814122626564317e-02 1.691902984146954197e-02 1.700911781768194367e-02 1.717253574936904517e-02 1.740118420218659048e-02 1.768496315739501515e-02 1.801207023935308751e-02 1.836934923499712255e-02 1.874266855588884936e-02 1.911730945332928630e-02 1.947834569649779801e-02 1.981099962265859410e-02 2.010096349505042373e-02 2.033467956930475745e-02 2.049957694626993246e-02 2.058426814291729190e-02 2.057871347745713134e-02 2.047436706627972502e-02 2.026432465617770615e-02 1.994350062348198421e-02 1.950886873956929335e-02 1.895980741911953982e-02 1.829859269545067516e-02 1.753107722696526857e-02 1.666757574684315374e-02 1.572393967464609868e-02 1.472273900024185546e-02 1.369437338271850373e-02 1.267780982617722901e-02 1.172051064869850112e-02 1.087701807995278443e-02 1.020567641547162965e-02 9.763190906266630900e-03 9.597204388855085089e-03 9.737768541282597681e-03 1.018927642427875507e-02 1.092475521090429530e-02 1.188409690935761723e-02
3.395953694977689452e-02 3.675622156659768408e-02 3.913814250081636831e-02 4.113165827663434887e-02 4.276296396397138294e-02 4.405754325605006766e-02 4.503975154304318967e-02 4.573256630231245512e-02 4.615752629462684109e-02 4.633486174781275418e-02 4.628379663832211943e-02 4.602298445646973990e-02 4.557102323760602730e-02 4.494698602394705395e-02 4.417090001216880668e-02 4.326411116875162471e-02 4.224948020403595378e-02 4.115136950740690136e-02 3.999539814800760762e-02 3.880796269264838450e-02 3.761554461058547183e-02 3.644384906114885025e-02 3.531684256000890837e-02 3.425577504763931830e-02 3.327828138695679977e-02 3.239765497542583528e-02 3.162237046114772798e-02 3.095590480432997699e-02 3.039687041929867856e-02 2.993943727062309962e-02 2.957398937528534985e-02 2.928794047157326150e-02 2.906662610696653798e-02 2.889419437870566210e-02 2.875443188756575397e-02 2.863148081219337934e-02 2.851042316455924819e-02 2.837772604610979896e-02 2.822155526353611887e-02 2.803197343787628554e-02 2.780104313284888218e-02 2.752285642813029343e-02 2.719351081627853842e-02 2.681104827529042986e-02 2.637537063506741053e-02 2.588814046588589629e-02 2.535267302393971744e-02 2.477382149883673723e-02 2.415785503146053795e-02 2.351232677019959513e-02 2.284592765744880571e-02 2.216832074141963579e-02 2.148995065883368624e-02 2.082182360599253018e-02 2.017525466787577909e-02 1.956158181897737006e-02 1.899184917150098517e-02 1.847646593006746843e-02 1.802485167617946804e-02 1.764508256895236035e-02 1.734355623189029125e-02 1.712469490533055291e-02 1.699070638772621697e-02 1.694142009595152668e-02 1.697421129318689090e-02 1.708402056369033237e-02 1.726346866525559076e-02 1.750305985477688606e-02 1.779146056483940641e-02 1.811583565313485897e-02 1.846222180588920347e-02 1.881591716531175532e-02 1.916186767608215116e-02 1.948503360526356726e-02 1.977072370417255753e-02 2.000488911917715218e-02 2.017437413421743764e-02 2.026712604271190682e-02 2.027237197950697983e-02 2.018077658221910375e-02 1.998460106439570519e-02 1.967789163211661890e-02 1.925673266532083872e-02 1.871960645350362676e-02 1.806790414703577513e-02 1.730662813613745646e-02 1.644530881946397807e-02 1.549912169785328843e-02 1.449012644797575446e-02 1.344845272970626553e-02 1.241312999464150996e-02 1.143211857353057352e-02 1.056099151765098332e-02 9.859718230113820314e-03 9.387208806466998401e-03 9.193761385433761243e-03 9.312273456544872471e-03 9.749812416614763583e-03 1.048152325262356917e-02 1.144855716612693496e-02
3.392607290366938394e-02 3.681546427338346777e-02 3.929254829091657214e-02 4.138197424166904781e-02 4.310823317083828377e-02 4.449517683355486142e-02 4.556566687106363561e-02 4.634138425183630117e-02 4.684281462595515227e-02 4.708940741801218022e-02 4.709988767200443127e-02 4.689268250353936102e-02 4.648641075596115363e-02 4.590037652145932678e-02 4.515500505388377050e-02 4.427216298237716952e-02 4.327531295803391242e-02 4.218946523696402023e-02 4.104090471806665780e-02 3.985669123087084986e-02 3.866395282114806764e-02 3.748901515347045910e-02 3.635643263746248660e-02 3.528800510813016184e-02 3.430187390371231687e-02 3.341178952216392051e-02 3.262662801880194391e-02 3.195020607123861406e-02 3.138140936567088840e-02 3.091461202478297532e-02 3.054033305670413034e-02 3.024605466859937170e-02 3.001711934753852409e-02 2.983762728045785337e-02 2.969126987215902833e-02 2.956205449492115001e-02 2.943489590706565781e-02 2.929606775043913300e-02 2.913352129866957074e-02 2.893708759736106709e-02 2.869858367827464452e-02 2.841184452988914158e-02 2.807270101897687067e-02 2.767892095944372161e-02 2.723012679800675129e-02 2.672769948834423370e-02 2.617467441220977520e-02 2.557563188173321914e-02 2.493658192762862949e-02 2.426484079839840921e-02 2.356889490619141006e-02 2.285824690417582669e-02 2.214323823393457222e-02 2.143484291829574756e-02 2.074442866916784145e-02 2.008348357061336478e-02 1.946330965067587931e-02 1.889468842454818456e-02 1.838752768646263400e-02 1.795050300761193499e-02 1.759071099982844125e-02 1.731335381593192627e-02 1.712147502141894359e-02 1.701576551663347425e-02 1.699445453872255526e-02 1.705329521230485035e-02 1.718564727301835626e-02 1.738265232680291650e-02 1.763349027557820775e-02 1.792570017670935822e-02 1.824554539059086711e-02 1.857840164899269078e-02 1.890914755327539887e-02 1.922253964063215179e-02 1.950355806780131041e-02 1.973771369499783060e-02 1.991131256699236324e-02 2.001167932209416134e-02 2.002734693420497175e-02 1.994822655183009497e-02 1.976577818604722397e-02 1.947321057887651738e-02 1.906574628453205911e-02 1.854099460795341145e-02 1.789947826223326280e-02 1.714535567494689799e-02 1.628736434230523833e-02 1.533997443957724541e-02 1.432467825920080533e-02 1.327124393434568096e-02 1.221863225412619935e-02 1.121512989560034985e-02 1.031713479496887062e-02 9.586017662954426227e-03 9.082679283242429263e-03 8.859904323061188955e-03 8.953348927320137207e-03 9.372774942911939883e-03 1.009557771567069079e-02 1.106439392209371091e-02
3.384952420598338202e-02 3.682730235669392366e-02 3.939471443581755994e-02 4.157478462453153417e-02 4.339040150484326647e-02 4.486389964301171901e-02 4.601676893787147449e-02 4.686951620158773951e-02 4.744168969335291197e-02 4.775206101010549820e-02 4.781894201593140520e-02 4.766059958267910429e-02 4.729571961837777949e-02 4.674386525315196717e-02 4.602587244212852369e-02 4.516412936956913649e-02 4.418269339672312168e-02 4.310721044983730627e-02 4.196461645346741265e-02 4.078261851735993926e-02 3.958897465089428885e-02 3.841061363590180661e-02 3.727265905294065845e-02 3.619743990760292823e-02 3.520358080163588088e-02 3.430526353718507671e-02 3.351173759414966674e-02 3.282713007811826483e-02 3.225057059494436384e-02 3.177660943404864852e-02 3.139587536137874307e-02 3.109589776631626126e-02 3.086200958925475191e-02 3.067825188274014847e-02 3.052821497114141178e-02 3.039577062386392831e-02 3.026567013697764597e-02 3.012400140916081381e-02 2.995851207171617084e-02 2.975881487686912394e-02 2.951649621595764383e-02 2.922514971934130068e-02 2.888035544478550001e-02 2.847962217972057133e-02 2.802230665734413428e-02 2.750951958041788006e-02 2.694402461803576190e-02 2.633013319190834547e-02 2.567359500057584537e-02 2.498148189002970601e-02 2.426206089923420989e-02 2.352465112951437551e-02 2.277945856862641227e-02 2.203738322333859828e-02 2.130979396248385699e-02 2.060826840659395545e-02 1.994429802099283514e-02 1.932896217546595241e-02 1.877257908647438425e-02 1.828434586342267062e-02 1.787198380483820404e-02 1.754140801691420753e-02 1.729644175569459638e-02 1.713859516819543974e-02 1.706692513729083163e-02 1.707798788297953604e-02 1.716588936650260272e-02 1.732243120199692191e-02 1.753734266213622522e-02 1.779858338311516089e-02 1.809269722653147200e-02 1.840519580952146642e-02 1.872095048694466177e-02 1.902457378739120381e-02 1.930077502427180944e-02 1.953467954818150984e-02 1.971210649028054193e-02 1.981980564746636808e-02 1.984566034001418455e-02 1.977886972704448812e-02 1.961013131137643445e-02 1.933185216116642055e-02 1.893842527524360053e-02 1.842661436352524898e-02 1.779609387332116432e-02 1.705018769595518721e-02 1.619683424017415857e-02 1.524977035745006884e-02 1.422986391447490263e-02 1.316642800448272060e-02 1.209821875159897836e-02 1.107366864594246623e-02 1.014978075268661850e-02 9.389084137566132762e-03 8.854232530789393416e-03 8.600303096815366602e-03 8.665601155017074037e-03 9.062589156172069435e-03 9.771044111614741318e-03 1.073532730484675485e-02
3.372728510894375947e-02 3.678907438419681125e-02 3.944194086647724584e-02 4.170737097213927935e-02 4.360675323389982122e-02 4.516101813923367736e-02 4.639040192033266202e-02 4.731435388248875218e-02 4.795159389245351456e-02 4.832031181346716636e-02 4.843848585542117474e-02 4.832428385058967768e-02 4.799650179649628257e-02 4.747498843343183478e-02 4.678100333921336729e-02 4.593745881307578771e-02 4.496900234935361645e-02 4.390190655719267143e-02 4.276374694967217255e-02 4.158286513026784176e-02 4.038763524277992623e-02 3.920557401764434430e-02 3.806235706720877132e-02 3.698082278853825206e-02 3.598005618927233723e-02 3.507464442805811877e-02 3.427418187707674535e-02 3.358307594897235598e-02 3.300066981769873842e-02 3.252166088270157934e-02 3.213676138585868508e-02 3.183352564032781301e-02 3.159725969567366705e-02 3.141193351923614319e-02 3.126102987764600022e-02 3.112828367655528713e-02 3.099828619808197780e-02 3.085694708880997242e-02 3.069182112506343985e-02 3.049231608095406831e-02 3.024980279512380979e-02 2.995764967044610427e-02 2.961120242111693612e-02 2.920772690512078024e-02 2.874632914921955440e-02 2.822786275781628135e-02 2.765483015636335459e-02 2.703128075469663633e-02 2.636270622134198605e-02 2.565593067647641001e-02 2.491899176167594598e-02 2.416100726056077952e-02 2.339202128011401427e-02 2.262282403545128398e-02 2.186474010057747053e-02 2.112938167108546761e-02 2.042836596094105284e-02 1.977299926404448363e-02 1.917393426247805677e-02 1.864081151277888204e-02 1.818190019303956087e-02 1.780375654266916005e-02 1.751092034810989434e-02 1.730566979780946701e-02 1.718785275659355516e-02 1.715480803735295115e-02 1.720138399613956384e-02 1.732005449342043785e-02 1.750112489582509104e-02 1.773301430172186111e-02 1.800259535423798934e-02 1.829557034641108096e-02 1.859686195755493737e-02 1.889099870011296325e-02 1.916247860087999869e-02 1.939609931262492939e-02 1.957724833013717303e-02 1.969215299299041308e-02 1.972809639844789326e-02 1.967361226742032898e-02 1.951867928844722502e-02 1.925494345937991264e-02 1.887600502864516736e-02 1.837781370058374705e-02 1.775921966211621919e-02 1.702272513528340497e-02 1.617546624549036707e-02 1.523042091764416177e-02 1.420777705390490614e-02 1.313629926606335076e-02 1.205440081186341661e-02 1.101047386979851078e-02 1.006189668025918131e-02 9.272098048247846142e-03 8.705225969233109165e-03 8.418431808537137073e-03 8.452536962610196491e-03 8.822692968120581999e-03 9.511182967964978974e-03 1.046433840714868641e-02
3.355696620785326295e-02 3.669832853474645079e-02 3.943173044969833230e-02 4.177721053736815210e-02 4.375476010815367717e-02 4.538401685949610548e-02 4.668407762723429666e-02 4.767344559042795832e-02 4.837011519411349436e-02 4.879178464155123351e-02 4.895617270248765057e-02 4.888140530222614966e-02 4.858642902226030513e-02 4.809140385620767205e-02 4.741802644945614098e-02 4.658973745468399791e-02 4.563177237975281353e-02 4.457102437523274147e-02 4.343569998435479335e-02 4.225476514145617285e-02 4.105719845789684158e-02 3.987109102263571708e-02 3.872265428963561629e-02 3.763521660631542060e-02 3.662830032418664533e-02 3.571687136706390431e-02 3.491083950660579110e-02 3.421486119117411046e-02 3.362846158931612206e-02 3.314645495958960103e-02 3.275960964479901483e-02 3.245548167628368313e-02 3.221933208562569040e-02 3.203504718204575746e-02 3.188599521857651137e-02 3.175577261765835657e-02 3.162881383457732953e-02 3.149085757520580370e-02 3.132927644465590550e-02 3.113328653403931931e-02 3.089405830110949699e-02 3.060475127430087317e-02 3.026049369695506600e-02 2.985832524435316770e-02 2.939711720272580528e-02 2.887748057170931928e-02 2.830166880119052222e-02 2.767347849811652161e-02 2.699814852892595471e-02 2.628225553127420955e-02 2.553360194857337562e-02 2.476109133498718626e-02 2.397458489307849674e-02 2.318473307441629161e-02 2.240277668624585800e-02 2.164031339263176867e-02 2.090902782801962179e-02 2.022038672963095279e-02 1.958530439829610226e-02 1.901378812045132274e-02 1.851457747434597997e-02 1.809479512059360140e-02 1.775962910773896605e-02 1.751206733544287061e-02 1.735270323310220131e-02 1.727962786318257629e-02 1.728841785351367677e-02 1.737222146364046302e-02 1.752193760725994851e-02 1.772647577176242328e-02 1.797307936784591983e-02 1.824769170669718332e-02 1.853534278729820212e-02 1.882053628931858180e-02 1.908761926353256741e-02 1.932112152930991200e-02 1.950605728330795374e-02 1.962818757281428392e-02 1.967424893792740423e-02 1.963216067303667073e-02 1.949123084824369578e-02 1.924238940334009954e-02 1.887848487283228308e-02 1.839468856334018979e-02 1.778905421653050045e-02 1.706327888111403707e-02 1.622369667160584311e-02 1.528250425156346681e-02 1.425915691093571774e-02 1.318177944080375225e-02 1.208830459875852477e-02 1.102689603642439953e-02 1.005507106892660277e-02 9.236888110520615619e-03 8.637713300352786033e-03 8.316531558484245232e-03 8.316523135167544836e-03 8.655496160697792249e-03 9.318351816686488293e-03 1.025363663083380013e-02
3.333638432279396879e-02 3.655280746983762680e-02 3.936176918805789349e-02 4.178195225564267784e-02 4.383205366204608738e-02 4.553052767574841675e-02 4.689544236212364603e-02 4.794446130550002877e-02 4.869495109812795042e-02 4.916420308391540595e-02 4.936974626310072084e-02 4.932971840867753782e-02 4.906325519387199491e-02 4.859085292727353261e-02 4.793465942631977561e-02 4.711864954941175770e-02 4.616864691823933942e-02 4.511216155547718987e-02 4.397802488374932817e-02 4.279581909557519936e-02 4.159511719967203675e-02 4.040457205897392268e-02 3.925091516829125327e-02 3.815794519442007593e-02 3.714559808669900404e-02 3.622919088254398373e-02 3.541891795843152280e-02 3.471965211875744500e-02 3.413106755949665838e-02 3.364806386435777869e-02 3.326143699360813166e-02 3.295872058794359349e-02 3.272511183668199569e-02 3.254440030534918454e-02 3.239983241431097782e-02 3.227486423038707086e-02 3.215377639092324713e-02 3.202214384284075843e-02 3.186716760961481182e-02 3.167788533708260079e-02 3.144528226945731558e-02 3.116232549245636155e-02 3.082394285623476018e-02 3.042696498602097746e-02 2.997004502484138661e-02 2.945356681045138703e-02 2.887954842974839800e-02 2.825154471382295904e-02 2.757454932033569228e-02 2.685489462217570747e-02 2.610014568743551644e-02 2.531898320867947624e-02 2.452106935670907845e-02 2.371689026240529630e-02 2.291756925958393989e-02 2.213464624647975068e-02 2.137982061228245467e-02 2.066465813205814461e-02 2.000026595490018294e-02 1.939694404926817217e-02 1.886382581981432827e-02 1.840852452398993380e-02 1.803680496735776337e-02 1.775230114145895377e-02 1.755629953994653977e-02 1.744760468081188801e-02 1.742249807155623817e-02 1.747479504686090188e-02 1.759599643909198763e-02 1.777552489600284572e-02 1.800102976261411594e-02 1.825874048986190351e-02 1.853384687956048313e-02 1.881088513048487579e-02 1.907411133857026334e-02 1.930784839179543189e-02 1.949679763392915544e-02 1.962631289167277027e-02 1.968264126255520052e-02 1.965314238976030581e-02 1.952650581520560050e-02 1.929299432557770450e-02 1.894474959316556906e-02 1.847620385497135767e-02 1.788464588515792028e-02 1.717098774014391704e-02 1.634076560004862552e-02 1.540537651984293446e-02 1.438349465526896943e-02 1.330251763562171653e-02 1.219976333938875210e-02 1.112298011613215704e-02 1.012958636395427936e-02 9.283993047914482211e-03 8.652495073223366237e-03 8.295650700412221176e-03 8.258818056724490791e-03 8.562405765713895431e-03 9.194026934066961906e-03 1.010468017997995585e-02
3.306354464039369667e-02 3.635042663273956726e-02 3.922990111408460739e-02 4.171938875244461664e-02 4.383639492022173983e-02 4.559829782416233157e-02 4.702224390402690024e-02 4.812515920939160891e-02 4.892387518700883758e-02 4.943535647446541115e-02 4.967700805386512236e-02 4.966703046568451962e-02 4.942478539784226493e-02 4.897113018080626046e-02 4.832867861195055265e-02 4.752194709573785009e-02 4.657734941978776411e-02 4.552301090488700130e-02 4.438838365811643982e-02 4.320365965126025942e-02 4.199899730118101387e-02 4.080359915160038098e-02 3.964470083142311585e-02 3.854655104453752479e-02 3.752947449435981020e-02 3.660911026663234147e-02 3.579590496299785846e-02 3.509491344953873104e-02 3.450592446087426962e-02 3.402389003518575816e-02 3.363960416947080201e-02 3.334055316412775499e-02 3.311185094229424086e-02 3.293717684346682273e-02 3.279964789177435697e-02 3.268257778113325268e-02 3.257009624828318545e-02 3.244762159040077282e-02 3.230219376612290805e-02 3.212268513758390065e-02 3.189991083576283054e-02 3.162666190440532876e-02 3.129768292319511785e-02 3.090961277252101194e-02 3.046090341116552969e-02 2.995172757860771820e-02 2.938388256753725336e-02 2.876069383175942212e-02 2.808691927936208393e-02 2.736865266863621263e-02 2.661322257131954611e-02 2.582908189803977128e-02 2.502568202272998504e-02 2.421332515573586600e-02 2.340298888554692008e-02 2.260611783375102504e-02 2.183437922786191782e-02 2.109938191963182941e-02 2.041236189419126656e-02 1.978384142529018147e-02 1.922327337451449833e-02 1.873868619878821945e-02 1.833634841172335564e-02 1.802047292400492731e-02 1.779298136684273265e-02 1.765334592835976837e-02 1.759852149788617912e-02 1.762297448417789875e-02 1.771880733425308316e-02 1.787597049239239219e-02 1.808254726068248691e-02 1.832509252422892185e-02 1.858900404508993451e-02 1.885890511607359044e-02 1.911901960072888082e-02 1.935352437731498176e-02 1.954686950310285942e-02 1.968406263551981256e-02 1.975092113995478155e-02 1.973430277597904015e-02 1.962233385564622970e-02 1.940466221228056079e-02 1.907277082071587651e-02 1.862039550561344486e-02 1.804409496187461479e-02 1.734402005226825041e-02 1.652491708971779230e-02 1.559736970070238829e-02 1.457922753429512913e-02 1.349707937942760429e-02 1.238749957295943484e-02 1.129763918830019656e-02 1.028458203923186820e-02 9.412812416226766163e-03 8.749255998294449763e-03 8.355768124249042875e-03 8.279681355808615750e-03 8.543923356209638317e-03 9.138890191625658257e-03 1.001825460676278139e-02
3.273661598705143727e-02 3.608924696945214200e-02 3.903409895533694468e-02 4.158742549919699355e-02 4.376564262562221419e-02 4.558515779612318242e-02 4.706229962792868315e-02 4.821335454104071216e-02 4.905470712738008859e-02 4.960307132810724134e-02 4.987579042888576342e-02 4.989117623132967305e-02 4.966885205647315199e-02 4.923006073591836007e-02 4.859789752951208103e-02 4.779742904620279398e-02 4.685566295763080730e-02 4.580134003210282329e-02 4.466453039310649964e-02 4.347603044617389528e-02 4.226657563741709894e-02 4.106590612567638521e-02 3.990174521861439283e-02 3.879877031517141306e-02 3.777766856914765992e-02 3.685437033059720674e-02 3.603954022281286029e-02 3.533837909733791860e-02 3.475075412227798116e-02 3.427163555609364504e-02 3.389178478621523993e-02 3.359861505926505648e-02 3.337713711576635600e-02 3.321090631199404009e-02 3.308290259051523130e-02 3.297629522218583492e-02 3.287506596124494668e-02 3.276448355799876228e-02 3.263143738589745907e-02 3.246464761061822885e-02 3.225477424860917486e-02 3.199444859796100882e-02 3.167824902055330766e-02 3.130263996983969482e-02 3.086588933291525838e-02 3.036797517580127129e-02 2.981048920839074468e-02 2.919654090862248974e-02 2.853066333792607379e-02 2.781871925251366492e-02 2.706780415598965261e-02 2.628614144281396503e-02 2.548296376867338967e-02 2.466837430417041788e-02 2.385318166336006934e-02 2.304870314561706379e-02 2.226653257684645809e-02 2.151827152991348316e-02 2.081522600603327375e-02 2.016807460625191784e-02 1.958651850097584135e-02 1.907892764892199500e-02 1.865200114268881354e-02 1.831046164980163968e-02 1.805680414131690878e-02 1.789111713260216341e-02 1.781099050035681378e-02 1.781151795330984666e-02 1.788539512424780833e-02 1.802310693966908961e-02 1.821319137670631902e-02 1.844256176259471622e-02 1.869686695705030308e-02 1.896086828562417240e-02 1.921881384635630227e-02 1.945479445326452062e-02 1.965307057605405680e-02 1.979836578563796967e-02 1.987612913523059688e-02 1.987277644851677752e-02 1.977592858255201175e-02 1.957467326515509309e-02 1.925988569537089717e-02 1.882465081738246213e-02 1.826483521346364616e-02 1.757985579562567832e-02 1.677368111109911117e-02 1.585607241320955221e-02 1.484401739577791493e-02 1.376322134787589559e-02 1.264939423005037415e-02 1.154891567682618352e-02 1.051830551432173314e-02 9.621844630842512833e-03 8.926787706755874574e-03 8.495998919338686173e-03 8.378561518629042137e-03 8.599814695267039150e-03 9.152981788406736735e-03 9.994610337078838058e-03
3.235390053572205493e-02 3.576744347394888307e-02 3.877243203476001682e-02 4.138404860675614499e-02 4.361772147101995040e-02 4.548899053769554085e-02 4.701346715974630969e-02 4.820689212373861082e-02 4.908528738983585632e-02 4.966518846106728058e-02 4.996393618930322633e-02 5.000000000000000278e-02 4.979329934315207540e-02 4.936548685386311919e-02 4.874015533165489134e-02 4.794293137014471462e-02 4.700142161903050897e-02 4.594498380863822062e-02 4.480430453540476532e-02 4.361078000114101960e-02 4.239571448130713405e-02 4.118937328840276135e-02 4.001995000178068529e-02 3.891252794210330046e-02 3.788812862123450143e-02 3.696294087557069896e-02 3.614781110973812328e-02 3.544804815744576759e-02 3.486355982211757770e-02 3.438929897229341809e-02 3.401596271639570346e-02 3.373086485455582817e-02 3.351889264803605689e-02 3.336346356355891080e-02 3.324741278149628831e-02 3.315376318357611540e-02 3.306635156039471751e-02 3.297030428985356365e-02 3.285237065534225148e-02 3.270113166419760103e-02 3.250710711152839799e-02 3.226278470686762267e-02 3.196259350899573887e-02 3.160284077113056922e-02 3.118162743151324870e-02 3.069875348222711117e-02 3.015562067106382707e-02 2.955513662136242947e-02 2.890162156078660699e-02 2.820071643568607123e-02 2.745928923346147021e-02 2.668533482749976815e-02 2.588786260818748061e-02 2.507676561228537604e-02 2.426266488604715554e-02 2.345672350954392318e-02 2.267042616365902430e-02 2.191532239631406934e-02 2.120273482675447824e-02 2.054343728888050058e-02 1.994731208521614493e-02 1.942299967833886407e-02 1.897755773726007497e-02 1.861614887706305316e-02 1.834177712694002801e-02 1.815509175811081538e-02 1.805427351401195715e-02 1.803501278244720382e-02 1.809058244997060680e-02 1.821200094890701102e-02 1.838827430297813870e-02 1.860670066253532554e-02 1.885321751444790292e-02 1.911277074654552099e-02 1.936968600906160964e-02 1.960802606610752633e-02 1.981192266456015608e-02 1.996587746229412652e-02 2.005503344126115250e-02 2.006542579682886115e-02 1.998422943924188511e-02 1.980002882505338749e-02 1.950314447922501734e-02 1.908605838582863243e-02 1.854398567691260130e-02 1.787563974643983575e-02 1.708422742911743994e-02 1.617868369553135052e-02 1.517510326775633328e-02 1.409824129640888102e-02 1.298283203073889724e-02 1.187431983137097330e-02 1.082844085833246928e-02 9.909002683500405667e-03 9.183288193326710064e-03 8.714874577484555893e-03 8.554354646984610108e-03 8.729345944027140647e-03 9.235914014261029439e-03 1.003365513960399052e-02
3.191379976537647017e-02 3.538327145696997661e-02 3.844303335120997228e-02 4.110729321661079488e-02 4.339059228526526146e-02 4.530770388403615456e-02 4.687361946045644906e-02 4.810362442849738795e-02 4.901345853251561080e-02 4.961954763787210926e-02 4.993928663910628812e-02 4.999134702384994827e-02 4.979597785421796541e-02 4.937526569405628618e-02 4.875331744584342208e-02 4.795633038576693069e-02 4.701251633110883205e-02 4.595185251763394402e-02 4.480564122318864834e-02 4.360587412347591979e-02 4.238441590233180817e-02 4.117204377265809567e-02 3.999740284522465550e-02 3.888595780171744121e-02 3.785903431197495256e-02 3.693304465614193066e-02 3.611897853089849481e-02 3.542221267483022795e-02 3.484265595573900892e-02 3.437520684990846842e-02 3.401046553313390869e-02 3.373561936899440589e-02 3.353541157356223351e-02 3.339310779482566188e-02 3.329139090467631706e-02 3.321313563731691926e-02 3.314203705010725781e-02 3.306308648831492863e-02 3.296290373000152624e-02 3.282994366626552918e-02 3.265460068960441414e-02 3.242923494663717265e-02 3.214814295251507831e-02 3.180749185089999653e-02 3.140523268866189655e-02 3.094100404783607650e-02 3.041603359487146663e-02 2.983304174755246896e-02 2.919614878472268082e-02 2.851078432989877232e-02 2.778359620002895589e-02 2.702235410327327725e-02 2.623584259673655480e-02 2.543373711127472347e-02 2.462645678319476394e-02 2.382498839241946331e-02 2.304067698767574279e-02 2.228498084988334363e-02 2.156919131057100092e-02 2.090412150566140284e-02 2.029977217381544186e-02 1.976498672116769328e-02 1.930711145826071590e-02 1.893167958517793376e-02 1.864213859655061006e-02 1.843963988373823609e-02 1.832290627303341177e-02 1.828818824052035399e-02 1.832931311610185021e-02 1.843782453204782096e-02 1.860320261375263823e-02 1.881314983328702395e-02 1.905392372483785679e-02 1.931069616508248460e-02 1.956791969824244609e-02 1.980968421985970784e-02 2.002005185830211045e-02 2.018336371256781309e-02 2.028451889077422313e-02 2.030923382750943543e-02 2.024429800271416655e-02 2.007785077627822698e-02 1.979971271446880413e-02 1.940181266380767294e-02 1.887875726185771208e-02 1.822858970069127227e-02 1.745377492414783294e-02 1.656242273628938041e-02 1.556971055199610557e-02 1.449938539942238064e-02 1.338510516871313331e-02 1.227122737234816359e-02 1.121249738789057565e-02 1.027199013282402255e-02 9.516721317569854649e-03 9.010682202935655152e-03 8.805720162966870421e-03 8.931573711855048808e-03 9.387134840294974331e-03 1.013519177741392663e-02
3.141477913071490102e-02 3.493503305948560816e-02 3.804406839680258418e-02 4.075521506055401061e-02 4.308222674592857016e-02 4.503920879740111460e-02 4.664062691054392945e-02 4.790139776199837940e-02 4.883705567652357055e-02 4.946398244227254160e-02 4.979968088821704053e-02 4.986306722486710807e-02 4.967475266369403286e-02 4.925728162125964094e-02 4.863529203881660629e-02 4.783556329796254808e-02 4.688691941113833778e-02 4.581996038510761232e-02 4.466660379709550682e-02 4.345943242260279227e-02 4.223086232989494565e-02 4.101216819881216974e-02 3.983242621261046806e-02 3.871745569478961951e-02 3.768885382179049115e-02 3.676321870862776092e-02 3.595164235915579432e-02 3.525952708376358519e-02 3.468674135858215019e-02 3.422809082880316073e-02 3.387404511621648628e-02 3.361163762622281642e-02 3.342544679604926572e-02 3.329857262658055678e-02 3.321353840295321325e-02 3.315306929517754936e-02 3.310072219694712436e-02 3.304136104278593972e-02 3.296148688329354759e-02 3.284944162833446091e-02 3.269550908552168456e-02 3.249193778983321124e-02 3.223290835631362206e-02 3.191446479307257639e-02 3.153442524415871889e-02 3.109228357954099339e-02 3.058910946381316470e-02 3.002745118904079011e-02 2.941124270531304818e-02 2.874571391503696546e-02 2.803730137974091638e-02 2.729355509191852547e-02 2.652303588328977502e-02 2.573519740141352527e-02 2.494024644879022645e-02 2.414897592768399867e-02 2.337256576296758634e-02 2.262234905838620899e-02 2.190954339887201188e-02 2.124495057083065908e-02 2.063863183575843224e-02 2.009956991878890722e-02 1.963533258876242957e-02 1.925175555165092867e-02 1.895266379839212478e-02 1.873965010087195321e-02 1.861192682671752169e-02 1.856626275141754975e-02 1.859701053062597434e-02 1.869622368577644397e-02 1.885385523999366653e-02 1.905802439915882385e-02 1.929533361812832415e-02 1.955121645971673663e-02 1.981029696611857904e-02 2.005674366980787424e-02 2.027460555091800329e-02 2.044812282169961720e-02 2.056201204990069226e-02 2.060173257936332922e-02 2.055374930131224215e-02 2.040581538839837672e-02 2.014730724734230261e-02 1.976965185252789817e-02 1.926689220255502558e-02 1.863643715918368929e-02 1.788003311340917792e-02 1.700497069816922155e-02 1.602549238554084460e-02 1.496428803826342462e-02 1.385384993339184960e-02 1.273731074458850712e-02 1.166823265310598830e-02 1.070871223978370895e-02 9.925211995791487218e-03 9.381839524180320133e-03 9.131431785560932893e-03 9.205669082351949570e-03 9.606223430176065448e-03 1.029918491196899627e-02
3.085533470102857709e-02 3.442104732216780955e-02 3.757370905639040998e-02 4.032586855837744233e-02 4.269059001215171761e-02 4.468140683695170229e-02 4.631234987733609532e-02 4.759805014503523668e-02 4.855390985925095437e-02 4.919632922149636683e-02 4.954297046370531588e-02 4.961303552168740832e-02 4.942752940270198070e-02 4.900947807938280110e-02 4.838406774594015969e-02 4.757867187432671119e-02 4.662273431531854112e-02 4.554748156137917309e-02 4.438544620052283646e-02 4.316979732888959198e-02 4.193349238677547552e-02 4.070828749604048225e-02 3.952366730714074183e-02 3.840577647688413893e-02 3.737644816900153460e-02 3.645242577515025312e-02 3.564485979543683541e-02 3.495913326090462764e-02 3.439503073019518908e-02 3.394722503716218059e-02 3.360602063028184788e-02 3.335826893756649314e-02 3.318836280031619429e-02 3.307922296471785956e-02 3.301320626100363170e-02 3.297288737318206792e-02 3.294168909584813121e-02 3.290435600970258861e-02 3.284728155540173750e-02 3.275870802761268047e-02 3.262882359431853313e-02 3.244978117366866671e-02 3.221566211418993436e-02 3.192240423802159693e-02 3.156770978186572429e-02 3.115094469168716573e-02 3.067303694030630926e-02 3.013637820760288466e-02 2.954473043898817042e-02 2.890313646231992481e-02 2.821783195577297690e-02 2.749615458322009209e-02 2.674644503617094882e-02 2.597793406121858342e-02 2.520060936175065949e-02 2.442505662155211935e-02 2.366226989609631487e-02 2.292342833150116249e-02 2.221963863206779730e-02 2.156164585324223462e-02 2.095951877989435386e-02 2.042232005581678944e-02 1.995777492365863326e-02 1.957195538746205055e-02 1.926899827959621669e-02 1.905087564711457904e-02 1.891723381855381358e-02 1.886531351133301573e-02 1.888995775905692037e-02 1.898370793303562690e-02 1.913698154004374319e-02 1.933831966322888118e-02 1.957468760989870826e-02 1.983181002522807490e-02 2.009452161311755039e-02 2.034711658982527732e-02 2.057368380842622066e-02 2.075841977871010352e-02 2.088591823314072532e-02 2.094144219611998245e-02 2.091119251051705777e-02 2.078259525737227720e-02 2.054463909131556965e-02 2.018830141080388621e-02 1.970710796970820411e-02 1.909787140495162669e-02 1.836164612205614180e-02 1.750491421434472242e-02 1.654097211157250918e-02 1.549141240036829015e-02 1.438748416039869506e-02 1.327097156844523132e-02 1.219407734750680046e-02 1.121769006550358237e-02 1.040744559346075578e-02 9.827275367536145514e-03 9.530735041301072186e-03 9.551248863712990048e-03 9.893193069364659628e-03 1.052603511802356444e-02
3.023396603581910563e-02 3.383962812749097271e-02 3.703011694924673164e-02 3.981729586208423988e-02 4.221363575043027283e-02 4.423219142375853924e-02 4.588664645570444955e-02 4.719142574428802223e-02 4.816186935361241317e-02 4.881445547597745155e-02 4.916705494915840635e-02 4.923919490634378476e-02 4.905230498357354696e-02 4.862991620770317630e-02 4.799778046804777792e-02 4.718387775837926124e-02 4.621827984794091293e-02 4.513284363853779096e-02 4.396071623221853991e-02 4.273564749804123486e-02 4.149112482287747872e-02 4.025936767306562136e-02 3.907024388742114107e-02 3.795019100270291545e-02 3.692123922303307271e-02 3.600023317385386140e-02 3.519833473245719685e-02 3.452085987727020189e-02 3.396746334516732857e-02 3.353264343135330117e-02 3.320650368912796135e-02 3.297568503874712814e-02 3.282437388737933365e-02 3.273529846054110126e-02 3.269064283801292187e-02 3.267283098022353421e-02 3.266515634680809688e-02 3.265225286782084957e-02 3.262041804323231181e-02 3.255780835884290736e-02 3.245453161993665930e-02 3.230266136366280461e-02 3.209619648509854511e-02 3.183098572526307096e-02 3.150463258363585956e-02 3.111639211304377886e-02 3.066706726902314328e-02 3.015890917665505974e-02 2.959552288586317012e-02 2.898177788772256236e-02 2.832372081239058204e-02 2.762848628143584062e-02 2.690420082370466662e-02 2.615987409628388327e-02 2.540527142583795181e-02 2.465076197329741162e-02 2.390713771261824411e-02 2.318539997909913400e-02 2.249651262235995153e-02 2.185112375766315104e-02 2.125926160439615617e-02 2.073001366156163733e-02 2.027120209845738319e-02 1.988907123987608896e-02 1.958800487611582833e-02 1.937029137386465233e-02 1.923595292489255204e-02 1.918265173148463176e-02 1.920568078666362588e-02 1.929804074687481441e-02 1.945059799458609406e-02 1.965231318421844717e-02 1.989052509778693398e-02 2.015127203004295209e-02 2.041963242134052156e-02 2.068006803547669387e-02 2.091675641545150122e-02 2.111390431954138225e-02 2.125604001788466285e-02 2.132828944835993279e-02 2.131664908114852541e-02 2.120827670264019416e-02 2.099182981866023340e-02 2.065788922540290340e-02 2.019951105247853179e-02 1.961295175943088276e-02 1.889860327395910533e-02 1.806215412338517748e-02 1.711594984605461708e-02 1.608045434644974486e-02 1.498560752668330089e-02 1.387173600970202647e-02 1.278952378833884788e-02 1.179843940969800553e-02 1.096303402223155338e-02 1.034677918326645102e-02 1.000367647037854642e-02 9.968681241471594526e-03 1.024877105291959432e-02 1.081683211602814908e-02
2.954916082179212533e-02 3.318907559441688915e-02 3.641144185916930093e-02 3.922753258176583935e-02 4.164931941156626433e-02 4.368946892731739168e-02 4.536140163131380243e-02 4.667941239285119948e-02 4.765884584546856151e-02 4.831631502015469593e-02 4.866994649214582275e-02 4.873963070953635235e-02 4.854725209218479359e-02 4.811687009480342114e-02 4.747481998850143492e-02 4.664970111246841827e-02 4.567222153941609408e-02 4.457487249539346386e-02 4.339141457950945746e-02 4.215617170319750640e-02 4.090314784108751989e-02 3.966500501109567617e-02 3.847196557681186596e-02 3.735072358269236198e-02 3.632346309796106315e-02 3.540708166970805287e-02 3.461270140085985492e-02 3.394551989697432853e-02 3.340501329391586810e-02 3.298546152114317093e-02 3.267673020498101932e-02 3.246522064405097524e-02 3.233489199615451754e-02 3.226826717952766682e-02 3.224735200857208051e-02 3.225442042377692914e-02 3.227264230174082399e-02 3.228655057707043030e-02 3.228235934354763137e-02 3.224815383937350982e-02 3.217397742734971061e-02 3.205184104646783411e-02 3.187567842956639391e-02 3.164126678649649416e-02 3.134612850352046926e-02 3.098942528020823955e-02 3.057185234356918010e-02 3.009553709427500653e-02 2.956394378413216423e-02 2.898178356720391285e-02 2.835492745617109248e-02 2.769031830257710075e-02 2.699587687868218455e-02 2.628039647515106533e-02 2.555342018109154831e-02 2.482509524711792870e-02 2.410599972912446862e-02 2.340693804565667502e-02 2.273870419702413853e-02 2.211181416560262583e-02 2.153621232268135288e-02 2.102096026652926913e-02 2.057392004525201296e-02 2.020144671587562404e-02 1.990810715961345914e-02 1.969644256423962528e-02 1.956679070090568129e-02 1.951718100826207308e-02 1.954331078581333925e-02 1.963860500586171731e-02 1.979435609856249403e-02 1.999993434560337624e-02 2.024305496810902341e-02 2.051008515965234424e-02 2.078637348499420487e-02 2.105658526872089542e-02 2.130503066072263196e-02 2.151597669936936019e-02 2.167394058873901852e-02 2.176396829427079682e-02 2.177191022083857508e-02 2.168471393444620227e-02 2.149076224009887834e-02 2.118029268964789075e-02 2.074594037820434722e-02 2.018344733068156566e-02 1.949257518197194949e-02 1.867823790945020990e-02 1.775183122069718192e-02 1.673266728216722676e-02 1.564932215259205728e-02 1.454057036978392663e-02 1.345543528199017597e-02 1.245177216826334581e-02 1.159280671857130553e-02 1.094127881044902779e-02 1.055136518017142817e-02 1.045932840253179300e-02 1.067462040327387535e-02 1.117355466498508310e-02
2.879939832641539854e-02 3.246768805362718058e-02 3.571584248449805737e-02 3.855463757127697288e-02 4.099563733826118439e-02 4.305120741964680448e-02 4.473458605373458602e-02 4.606001081080347143e-02 4.704289459396643336e-02 4.770003964739466529e-02 4.804987362008139584e-02 4.811268730352048772e-02 4.791084960892456196e-02 4.746897184344672782e-02 4.681399069442309518e-02 4.597513807618611864e-02 4.498376696129956914e-02 4.387300658542628295e-02 4.267722913964035192e-02 4.143132413296518601e-02 4.016979613227411594e-02 3.892572534805559953e-02 3.772965560337659952e-02 3.660849603523875367e-02 3.558453599830590369e-02 3.467467221717315112e-02 3.388993075398880755e-02 3.323533503203238149e-02 3.271013017484660640e-02 3.230833127246197228e-02 3.201952735080196982e-02 3.182985025995479361e-02 3.172301116307997548e-02 3.168131555473423233e-02 3.168658655000088087e-02 3.172095009212468758e-02 3.176745964235309916e-02 3.181055820359809244e-02 3.183639033239717142e-02 3.183298580657278193e-02 3.179034057589346512e-02 3.170042076793142677e-02 3.155711316829314106e-02 3.135614188389181795e-02 3.109496668526309793e-02 3.077267437209312007e-02 3.038987073278227174e-02 2.994857741262825501e-02 2.945213529025844310e-02 2.890511375133224606e-02 2.831322348374308573e-02 2.768322904643385693e-02 2.702285645345761309e-02 2.634069036570060515e-02 2.564605522676371638e-02 2.494887487641069337e-02 2.425950590008846969e-02 2.358854129849881007e-02 2.294658303039618513e-02 2.234398457898090565e-02 2.179056781269549103e-02 2.129532183898913411e-02 2.086609495258820793e-02 2.050929373072219591e-02 2.022960535595572096e-02 2.002975991830336852e-02 1.991034845805755502e-02 1.986970977211935732e-02 1.990389470268448188e-02 2.000671121015008130e-02 2.016984766108823046e-02 2.038306619066335146e-02 2.063445344126827591e-02 2.091071299074884551e-02 2.119748268620663331e-02 2.147966096786051507e-02 2.174172897339217425e-02 2.196805950493319406e-02 2.214320952965249598e-02 2.225219950665341395e-02 2.228079026060435924e-02 2.221577611395370369e-02 2.204532116256954777e-02 2.175937321446006628e-02 2.135019568483292884e-02 2.081305940686489775e-02 2.014713036865524443e-02 1.935657079079153298e-02 1.845183319027133770e-02 1.745106290485383752e-02 1.638142841464648378e-02 1.528007190860021514e-02 1.419423161023213725e-02 1.317997573925978883e-02 1.229898276547176927e-02 1.161300368494575658e-02 1.117612526232993411e-02 1.102568635155159842e-02 1.117346571233833810e-02 1.159918177697734885e-02
2.798318051801636230e-02 3.167380355422749066e-02 3.494153861314025500e-02 3.779675609836862654e-02 4.025070132401015188e-02 4.231552309986943289e-02 4.400435489931905919e-02 4.533144658467892080e-02 4.631234032043335391e-02 4.696407984370964961e-02 4.730543782334220571e-02 4.735714173186056364e-02 4.714207459290157415e-02 4.668542333715483550e-02 4.601474465192701563e-02 4.515991673953204111e-02 4.415294619917300989e-02 4.302760345797709829e-02 4.181886900546836344e-02 4.056218703656644387e-02 3.929254306118836609e-02 3.804340628490730097e-02 3.684560303017294508e-02 3.572620941621262869e-02 3.470756437209233242e-02 3.380650292046959160e-02 3.303389212184491830e-02 3.239451955098918839e-02 3.188734218540347637e-02 3.150606037849129626e-02 3.123994578309939596e-02 3.107483010237914803e-02 3.099415593130620122e-02 3.098000020745689947e-02 3.101400046597132046e-02 3.107813857803315080e-02 3.115536082616771063e-02 3.123003344405080386e-02 3.128824735733628376e-02 3.131799459596519564e-02 3.130924252081348363e-02 3.125393190469027277e-02 3.114592236891260135e-02 3.098090484554834323e-02 3.075629645939148560e-02 3.047112905328308585e-02 3.012593882024056785e-02 2.972266128339417016e-02 2.926453319531407971e-02 2.875600076835435615e-02 2.820263193347907413e-02 2.761102899911105010e-02 2.698873710836642917e-02 2.634414326725242894e-02 2.568636046427577244e-02 2.502509157672569429e-02 2.437046843002717983e-02 2.373286261192638844e-02 2.312266648553895632e-02 2.255004528382725110e-02 2.202466411080280725e-02 2.155539692679203298e-02 2.115002785259874341e-02 2.081495799486665979e-02 2.055493303096134206e-02 2.037280758082176194e-02 2.026936163305952804e-02 2.024318187606036212e-02 2.029061685431236481e-02 2.040580982291763379e-02 2.058080761024662017e-02 2.080573842529250678e-02 2.106904704873388892e-02 2.135777277744135491e-02 2.165785419335102338e-02 2.195444541008723452e-02 2.223223082701354658e-02 2.247572937476780344e-02 2.266958450415777065e-02 2.279884249777816910e-02 2.284922884360394979e-02 2.280744015641521585e-02 2.266147708821045562e-02 2.240105113826098074e-02 2.201810399625590484e-02 2.150747989890970310e-02 2.086778613452417927e-02 2.010245953589042886e-02 1.922102138566768662e-02 1.824044274120505474e-02 1.718645134818548234e-02 1.609449077375752976e-02 1.500990704939479670e-02 1.398682749770838521e-02 1.308518189777980838e-02 1.236549211802638430e-02 1.188149881353244876e-02 1.167138304394874787e-02 1.174908590430191226e-02 1.209767998660800023e-02
2.709910168987348517e-02 3.080588187577617751e-02 3.408690590961501593e-02 3.695222788727677704e-02 3.941286050979030120e-02 4.148081678010338141e-02 4.316919983181881360e-02 4.449233864938861860e-02 4.546596342748462222e-02 4.610741013500999075e-02 4.643583959879346579e-02 4.647245219070063327e-02 4.624067510301618084e-02 4.576629543861417820e-02 4.507750931411236284e-02 4.420485552839535648e-02 4.318100304041400800e-02 4.204036573212963090e-02 4.081852695446754054e-02 3.955147107850751076e-02 3.827463973459541147e-02 3.702185519902353311e-02 3.582417924005926874e-02 3.470879774174877308e-02 3.369803386857168903e-02 3.280859049138656197e-02 3.205110378509316849e-02 3.143005605559860000e-02 3.094405280152897827e-02 3.058642530825530018e-02 3.034608444033635305e-02 3.020853007242231894e-02 3.015691608774966059e-02 3.017308126968212476e-02 3.023847701628345694e-02 3.033494787021420377e-02 3.044534524191119806e-02 3.055397489583751638e-02 3.064689311277767059e-02 3.071207483522236936e-02 3.073948044337887139e-02 3.072104743121860382e-02 3.065063051385578247e-02 3.052390974217966679e-02 3.033828186373234426e-02 3.009274598522223079e-02 2.978779085148626840e-02 2.942528787315185773e-02 2.900839141678942731e-02 2.854144576681943643e-02 2.802989650949436889e-02 2.748020281459759295e-02 2.689974616094685522e-02 2.629673045780537427e-02 2.568006827707457543e-02 2.505924807807663121e-02 2.444417794109778053e-02 2.384500249042273423e-02 2.327189142252251985e-02 2.273480035197536150e-02 2.224320746348490072e-02 2.180583253503158223e-02 2.143034799539236465e-02 2.112309443308138177e-02 2.088881497140673144e-02 2.073042377329435693e-02 2.064882334645977424e-02 2.064278316740475808e-02 2.070888854371320809e-02 2.084156393911507435e-02 2.103316974209951465e-02 2.127416632223207496e-02 2.155333484017497858e-02 2.185804119663294076e-02 2.217452807279036986e-02 2.248822036677533553e-02 2.278403141407100638e-02 2.304666101232649006e-02 2.326088121363661249e-02 2.341181186081738030e-02 2.348519470623882874e-02 2.346768241811755459e-02 2.334716647941460430e-02 2.311317525084527480e-02 2.275737910283760768e-02 2.227424150776920186e-02 2.166185019539334025e-02 2.092294643305148485e-02 2.006613738351037748e-02 1.910721981278746054e-02 1.807045794241975492e-02 1.698954428276273562e-02 1.590784307409169249e-02 1.487740734865027753e-02 1.395623821895573130e-02 1.320340728034815996e-02 1.267206503733355784e-02 1.240100124904033180e-02 1.240614141458638332e-02 1.267383543058038346e-02
2.614596943508467122e-02 2.986264006308640001e-02 3.315062660090051933e-02 3.601975369733457361e-02 3.848088477359293269e-02 4.054597519966190999e-02 4.222816956444100378e-02 4.354194064040028955e-02 4.450326390843163671e-02 4.512981754681309049e-02 4.544119367338064763e-02 4.545910243524891453e-02 4.520754638324686603e-02 4.471293868047531567e-02 4.400413550738316998e-02 4.311235124799692175e-02 4.207092569117418940e-02 4.091491681854483170e-02 3.968050206424030696e-02 3.840418612895879491e-02 3.712183448097083199e-02 3.586757702437477768e-02 3.467265262754306437e-02 3.356428716087378472e-02 3.256470954072951396e-02 3.169040709837254999e-02 3.095170130096976460e-02 3.035268951657950701e-02 2.989155437187863973e-02 2.956119813879308847e-02 2.935012432276287719e-02 2.924346839349707683e-02 2.922407639973653368e-02 2.927354188864911277e-02 2.937313314126850650e-02 2.950456835940989606e-02 2.965062097129050542e-02 2.979555724568094810e-02 2.992542239711912244e-02 3.002819934975245464e-02 3.009386728775735945e-02 3.011438643871691689e-02 3.008363258663432002e-02 2.999730073025943036e-02 2.985279290944695824e-02 2.964910103318748810e-02 2.938669183014355757e-02 2.906739790735769075e-02 2.869431634164992806e-02 2.827171418448675214e-02 2.780493866222026947e-02 2.730032863521655861e-02 2.676512299954093843e-02 2.620736116062635443e-02 2.563577049654810688e-02 2.505963590114018702e-02 2.448864711138389744e-02 2.393272063620094370e-02 2.340179475113405780e-02 2.290559819669969396e-02 2.245339583984927098e-02 2.205371746289270032e-02 2.171407877374524620e-02 2.144070634643171699e-02 2.123828011886470801e-02 2.110970792915176086e-02 2.105594608400620030e-02 2.107587800526277907e-02 2.116625968516136491e-02 2.132173631161397159e-02 2.153492950047459012e-02 2.179658969974196045e-02 2.209580412252455661e-02 2.242024753792291186e-02 2.275646175001308502e-02 2.309014977651601547e-02 2.340647257365804923e-02 2.369033948935933900e-02 2.392668824962292107e-02 2.410075597103043810e-02 2.419834923285875405e-02 2.420612839744946607e-02 2.411192877811019555e-02 2.390514828111820964e-02 2.357723665519632916e-02 2.312232356830881685e-02 2.253801845629795769e-02 2.182640024883679766e-02 2.099518422339358148e-02 2.005900025252270805e-02 1.904063660110447143e-02 1.797199619492167652e-02 1.689438961200270470e-02 1.585768327796526975e-02 1.491779239554741170e-02 1.413213829319186557e-02 1.355305228029534716e-02 1.321970332177779643e-02 1.314981324223896825e-02 1.333290851089669916e-02
2.512299153301293664e-02 2.884325623239027483e-02 3.213191111203366618e-02 3.499863591044912597e-02 3.745422563027701879e-02 3.951065385390362811e-02 4.118117650235997296e-02 4.248047350899405300e-02 4.342482236920297556e-02 4.403229373439229016e-02 4.432295519393349842e-02 4.431906519809097889e-02 4.404523484385872156e-02 4.352853123310754940e-02 4.279849279381958693e-02 4.188702509646491379e-02 4.082814637975231559e-02 3.965755654071038278e-02 3.841201306044089714e-02 3.712851311814298338e-02 3.584330287158739303e-02 3.459076083150410680e-02 3.340222877753972613e-02 3.230488541777667283e-02 3.132076900708741229e-02 3.046605054710072730e-02 2.975063716659404056e-02 2.917814831442338760e-02 2.874626216248540866e-02 2.844738524869686036e-02 2.826956374879601927e-02 2.819753581248682014e-02 2.821382275294495243e-02 2.829976999081791622e-02 2.843647127763817076e-02 2.860553587010854215e-02 2.878968291282310576e-02 2.897316703042937189e-02 2.914205267055154647e-02 2.928436223537865882e-02 2.939012556738032633e-02 2.945135734100086389e-02 2.946198574060895914e-02 2.941775159999546196e-02 2.931609273784825664e-02 2.915602403969034390e-02 2.893802016234580873e-02 2.866390465857990982e-02 2.833674682343192627e-02 2.796076558709282428e-02 2.754123824578905838e-02 2.708441066541776923e-02 2.659740476871055859e-02 2.608811861006123459e-02 2.556511416605949591e-02 2.503748816127190913e-02 2.451472185902724837e-02 2.400650682642664971e-02 2.352254526221960948e-02 2.307232554425457660e-02 2.266487613462930123e-02 2.230850371945938132e-02 2.201052421458081845e-02 2.177699772350345786e-02 2.161248033529365731e-02 2.151980645850391435e-02 2.149991494515885934e-02 2.155173045524636649e-02 2.167210842892927647e-02 2.185584795641632230e-02 2.209577222209816935e-02 2.238287161032921288e-02 2.270650056457380536e-02 2.305461637617202408e-02 2.341404657951435056e-02 2.377077170343197543e-02 2.411021176512014030e-02 2.441750796434289522e-02 2.467779535236441779e-02 2.487646760929601575e-02 2.499944126590862917e-02 2.503343352401865562e-02 2.496627491975907109e-02 2.478728482905435959e-02 2.448774316013812430e-02 2.406149372702229977e-02 2.350571099283524368e-02 2.282184818377740523e-02 2.201675611254181805e-02 2.110391269635406020e-02 2.010462837797062641e-02 1.904899220350532441e-02 1.797620746571251121e-02 1.693386359250641932e-02 1.597565672314029545e-02 1.515718111145829619e-02 1.452973756787165165e-02 1.413265196928987534e-02 1.398524721702543161e-02 1.408010359737678178e-02
2.403004420781679890e-02 2.774765727034761431e-02 3.103080655173841296e-02 3.388910942325856074e-02 3.633337144659651297e-02 3.837565875947464983e-02 4.002940760365193001e-02 4.130956834199646377e-02 4.223277797804005779e-02 4.281755152015441490e-02 4.308447855885051692e-02 4.305640721159625928e-02 4.275859327433435830e-02 4.221878829206089645e-02 4.146723684538297650e-02 4.053655147224508037e-02 3.946143444935616695e-02 3.827822051707344131e-02 3.702422488151098368e-02 3.573689731797576735e-02 3.445280568941368193e-02 3.320649875835861992e-02 3.202932490505715907e-02 3.094830470364510339e-02 2.998516517748186019e-02 2.915563720539657289e-02 2.846909350902632196e-02 2.792856591109127429e-02 2.753113427730623577e-02 2.726863515980193498e-02 2.712860447881942569e-02 2.709535125646765977e-02 2.715105960114446923e-02 2.727683084146776543e-02 2.745360139188894599e-02 2.766289852839040261e-02 2.788742076541699325e-02 2.811144884918543446e-02 2.832110634717566883e-02 2.850449573016157478e-02 2.865173788045239506e-02 2.875494158611262632e-02 2.880812618039627071e-02 2.880711616266421610e-02 2.874942216083533134e-02 2.863411843115669722e-02 2.846172346886107277e-02 2.823408729342151771e-02 2.795428655053660075e-02 2.762652667096813369e-02 2.725604886481538744e-02 2.684903864077615998e-02 2.641253177848194855e-02 2.595431323108186167e-02 2.548280430526527265e-02 2.500693368945312856e-02 2.453598852311425493e-02 2.407944276467608238e-02 2.364676164628679023e-02 2.324718298466196820e-02 2.288947847242665812e-02 2.258170065333002866e-02 2.233092385900324606e-02 2.214298966075686076e-02 2.202226904020964174e-02 2.197145419702525859e-02 2.199139245794705030e-02 2.208097303204294148e-02 2.223707445295934615e-02 2.245457672658029979e-02 2.272643788529993270e-02 2.304383035473820535e-02 2.339632879065559057e-02 2.377213829398741249e-02 2.415835047477122438e-02 2.454121486278892234e-02 2.490641465420959794e-02 2.523933862913411985e-02 2.552534510641803200e-02 2.575001883646733242e-02 2.589942758659856750e-02 2.596039163426366869e-02 2.592078612677620186e-02 2.576990271924455358e-02 2.549890205496889786e-02 2.510139082955461023e-02 2.457415380447589004e-02 2.391805854642614637e-02 2.313912413144209382e-02 2.224969924674509436e-02 2.126962559682182494e-02 2.022716882570256558e-02 1.915939031254720523e-02 1.811153506533898574e-02 1.713497256779480601e-02 1.628331840924750543e-02 1.560665195328603955e-02 1.514424385701072621e-02 1.491681838151538014e-02 1.491986639719614788e-02
2.286803652402998044e-02 2.657690523940903216e-02 2.984860700877252707e-02 3.269277804014180527e-02 3.512031247783856114e-02 3.714344303008592502e-02 3.877585573582416345e-02 4.003283607330427457e-02 4.093144041159883090e-02 4.149068321380845054e-02 4.173172644246733731e-02 4.167805335763365149e-02 4.135560449404390715e-02 4.079284938090903256e-02 4.002076410207167784e-02 3.907268297629735987e-02 3.798399367867082155e-02 3.679165044373994969e-02 3.553349093092865452e-02 3.424735967411761395e-02 3.297006437700317205e-02 3.173621847943256663e-02 3.057705021164119907e-02 2.951927897534170273e-02 2.858416820970692898e-02 2.778685537392338104e-02 2.713603330044582831e-02 2.663401654309143982e-02 2.627717915367291587e-02 2.605670623778339606e-02 2.595956936776173257e-02 2.596962067151120657e-02 2.606870274823488987e-02 2.623768800064792475e-02 2.645738570732264483e-02 2.670928208294438139e-02 2.697610283778686599e-02 2.724220647354529470e-02 2.749382879304251848e-02 2.771920533316759791e-02 2.790859991630083303e-02 2.805426575526786745e-02 2.815036191558049905e-02 2.819284351006688671e-02 2.817933950800259602e-02 2.810902791596893435e-02 2.798251453558035090e-02 2.780171857685607290e-02 2.756976607081270195e-02 2.729089020678041044e-02 2.697033633787849355e-02 2.661426838373207038e-02 2.622967266796051578e-02 2.582425484154333983e-02 2.540632547015111986e-02 2.498467013252072752e-02 2.456840052715754744e-02 2.416678415216009373e-02 2.378905162375245796e-02 2.344418261022571809e-02 2.314067359994811945e-02 2.288629314675967238e-02 2.268783262500395637e-02 2.255086260452689173e-02 2.247950642230243587e-02 2.247624310192415653e-02 2.254175125110121844e-02 2.267480387466946565e-02 2.287222126354602689e-02 2.312888551427580777e-02 2.343781619504091071e-02 2.379030267869548104e-02 2.417608519240409259e-02 2.458357409729590090e-02 2.500009559557874947e-02 2.541215210435777277e-02 2.580568693608898539e-02 2.616634558703490043e-02 2.647972970716751598e-02 2.673164454412288102e-02 2.690834615507575397e-02 2.699680076911244522e-02 2.698497505769395163e-02 2.686218219660072709e-02 2.661951353443282875e-02 2.625038785621627846e-02 2.575124724583164465e-02 2.512241700744793915e-02 2.436912261774978883e-02 2.350261431833694514e-02 2.254128555830895581e-02 2.151158446724386886e-02 2.044841572723776410e-02 1.939463659309948601e-02 1.839920934971012514e-02 1.751364651326533725e-02 1.678663788004049542e-02 1.625719970009467663e-02 1.594725594732245705e-02 1.585504577718053684e-02
