3.401680941224073315e-03 6.305783638227530422e-03 8.853323920621332388e-03 1.107402230258762617e-02 1.299650466582428013e-02 1.464745443430637978e-02 1.605088604395353558e-02 1.722760873570493290e-02 1.819493593933034156e-02 1.896667193921871067e-02 1.955337793570431290e-02 1.996288946773396022e-02 2.020103198169910519e-02 2.027246520201238938e-02 2.018158150765474862e-02 1.993338778176761625e-02 1.953431129837533697e-02 1.899288445096727201e-02 1.832027710253167352e-02 1.753065667800138630e-02 1.664136382672051773e-02 1.567289587446320936e-02 1.464869272317226995e-02 1.359472234621362380e-02 1.253886775178227053e-02 1.151012609055947385e-02 1.053764439748040849e-02 9.649634750205887679e-03 8.872232042383824610e-03 8.228376000443396107e-03 7.736810382508773135e-03 7.411291706011392116e-03 7.260084642760764734e-03 7.285792141047637248e-03 7.485529950354713642e-03 7.851414898905090256e-03 8.371302027797511425e-03 9.029683784695348783e-03 9.808657746042871717e-03 1.068887677739923520e-02 1.165041326158627009e-02 1.267349183730052953e-02 1.373906810510159421e-02 1.482925042425564492e-02 1.592757639154281091e-02 1.701916451269676334e-02 1.809076562231905216e-02 1.913073895641724531e-02 2.012897570408993600e-02 2.107678947335691819e-02 2.196678924381916323e-02 2.279274660843964850e-02 2.354946575247733598e-02 2.423266182637001664e-02 2.483885117053132724e-02 2.536525520438249331e-02 2.580971862715124646e-02 2.617064181196813305e-02 2.644692682960840882e-02 2.663793634712547514e-02 2.674346465668904493e-02 2.676372026181379760e-02 2.669931975380078829e-02 2.655129313025883508e-02 2.632110122239193079e-02 2.601066648709322165e-02 2.562241905101747194e-02 2.515936051283536659e-02 2.462514853053465388e-02 2.402420551183364478e-02 2.336185459918776672e-02 2.264448534099307297e-02 2.187974964160303848e-02 2.107678539946518728e-02 2.024646026663589823e-02 1.940162083973198670e-02 1.855732315906604563e-02 1.773100889281548076e-02 1.694257896147124617e-02 1.621430459855835102e-02 1.557050824043571847e-02 1.503694778349461830e-02 1.463985293208783234e-02 1.440459608403129102e-02 1.435403374640293640e-02 1.450662310890794317e-02 1.487448955794491538e-02 1.546167522800436650e-02 1.626281515809087364e-02 1.726245206145556044e-02 1.843511387509592578e-02 1.974615867317938700e-02 2.115327018870059861e-02 2.260839576977467791e-02 2.405987736657184961e-02 2.545453775110322406e-02 2.673953570904581689e-02 2.786387473967629272e-02 2.877952003599899833e-02 2.944213480297604504e-02
6.530054970420826575e-03 9.419558242546945820e-03 1.195181051978766451e-02 1.415699563068131654e-02 1.606421485794076731e-02 1.770061570814302626e-02 1.909063939411581937e-02 2.025545859948762670e-02 2.121266360676171692e-02 2.197623103179864243e-02 2.255677905478075188e-02 2.296208177762272887e-02 2.319778898245222071e-02 2.326828048275902255e-02 2.317757827419639899e-02 2.293024390926919759e-02 2.253219999719203309e-02 2.199142962955732972e-02 2.131852226993348476e-02 2.052704669583813382e-02 1.963373982426325909e-02 1.865850492608997838e-02 1.762421514896831895e-02 1.655632039502764885e-02 1.548225961772783238e-02 1.443068839528838070e-02 1.343054425363204678e-02 1.250998933010369352e-02 1.169528953391001623e-02 1.100970759310321116e-02 1.047249939849279055e-02 1.009810412992173841e-02 9.895605822351874123e-03 9.868517522085215599e-03 1.001490290948421277e-02 1.032781102548527979e-02 1.079596529421682043e-02 1.140462477753953312e-02 1.213652679459315854e-02 1.297282527255322164e-02 1.389395506917034430e-02 1.488037412990618306e-02 1.591315787877543159e-02 1.697444002165272511e-02 1.804770890339186737e-02 1.911797814313559440e-02 2.017185498313174216e-02 2.119753070118158764e-02 2.218471578341468450e-02 2.312453944287433741e-02 2.400942936515240711e-02 2.483298385816062534e-02 2.558984523331773314e-02 2.627558042189274967e-02 2.688657258097271185e-02 2.741992574182846795e-02 2.787338333462671333e-02 2.824526060941710826e-02 2.853439048773404041e-02 2.874008215532266111e-02 2.886209169070802494e-02 2.890060417591286401e-02 2.885622702497789294e-02 2.872999467091095355e-02 2.852338525265021504e-02 2.823835051705682678e-02 2.787736076150450215e-02 2.744346723356012180e-02 2.694038488633742137e-02 2.637259862773026070e-02 2.574549600933168786e-02 2.506552842247353891e-02 2.434040098520888137e-02 2.357928804453851557e-02 2.279306620044435627e-02 2.199454966901589342e-02 2.119870353584323019e-02 2.042279932227450759e-02 1.968646531200584845e-02 1.901157329085699163e-02 1.842189700052222073e-02 1.794248012346500581e-02 1.759866793750424971e-02 1.741479086148985111e-02 1.741254061933153116e-02 1.760914549633012596e-02 1.801551766107908556e-02 1.863459430460791960e-02 1.946010606608838955e-02 2.047596858162535616e-02 2.165640800462088553e-02 2.296681737147641608e-02 2.436522700762316571e-02 2.580418796316584495e-02 2.723283084611357110e-02 2.859887510732305252e-02 2.985041337296406860e-02 3.093736247054669833e-02 3.181253898786934320e-02 3.243237019444687730e-02
9.392547086674184545e-03 1.226226266095080050e-02 1.477386732856776630e-02 1.695810857873786270e-02 1.884467087105668945e-02 2.046127645368884390e-02 2.183290142227566760e-02 2.298118167132814915e-02 2.392407029997541124e-02 2.467578393154279404e-02 2.524704413765892219e-02 2.564558753408776107e-02 2.587689028719122528e-02 2.594503446117130130e-02 2.585363693321474088e-02 2.560676570572260197e-02 2.520978034222496472e-02 2.467004893158896220e-02 2.399750964522689989e-02 2.320505787615538551e-02 2.230874887381600891e-02 2.132781086151490368e-02 2.028446609731524020e-02 1.920355915481204018e-02 1.811199502782961934e-02 1.703799641972408505e-02 1.601020091490635774e-02 1.505663453006437884e-02 1.420361665020435961e-02 1.347466914585863408e-02 1.288951496185311574e-02 1.246325404900915090e-02 1.220579404322899748e-02 1.212158932130703165e-02 1.220970822023160346e-02 1.246421046240111553e-02 1.287478257284458555e-02 1.342755472615196101e-02 1.410601167186227925e-02 1.489191331663471812e-02 1.576615434889093101e-02 1.670951245294035811e-02 1.770325646858841862e-02 1.872960556105105270e-02 1.977204582010281750e-02 2.081552092287979397e-02 2.184651889261320784e-02 2.285307851741671253e-02 2.382473782482980029e-02 2.475244423505669478e-02 2.562844251813964011e-02 2.644615307882357269e-02 2.720004977236352428e-02 2.788554361389379913e-02 2.849887645218632942e-02 2.903702692377132730e-02 2.949762973022745580e-02 2.987890841731440095e-02 3.017962130570074966e-02 3.039901996336261125e-02 3.053681956514173179e-02 3.059318061369002695e-02 3.056870176697149694e-02 3.046442390670061826e-02 3.028184606784053989e-02 3.002295440562005591e-02 2.969026596529954209e-02 2.928688958123934136e-02 2.881660667322529998e-02 2.828397489299559753e-02 2.769445731142648054e-02 2.705457887436914233e-02 2.637210988017605479e-02 2.565627288912199558e-02 2.491796440947204733e-02 2.416997564701305404e-02 2.342718751003515856e-02 2.270670431898978714e-02 2.202787936962024087e-02 2.141217571173280321e-02 2.088280046078554511e-02 2.046405490721888917e-02 2.018036019754136656e-02 2.005495282893589998e-02 2.010829565087221202e-02 2.035631286735153228e-02 2.080861927983810450e-02 2.146695713495307481e-02 2.232406077730010249e-02 2.336312947467030637e-02 2.455800553377648562e-02 2.587404637805656646e-02 2.726957323331738112e-02 2.869770216664534190e-02 3.010833140344850237e-02 3.145007285822692261e-02 3.267196358818773294e-02 3.372485633041961278e-02 3.456245047623273531e-02 3.514197447967842836e-02
1.199761073188450496e-02 1.484233851157522668e-02 1.732791622132217810e-02 1.948575768270305320e-02 2.134624223813638352e-02 2.293778302444279479e-02 2.428600594386671335e-02 2.541311762465893812e-02 2.633752813282369196e-02 2.707376985536388489e-02 2.763272165767970134e-02 2.802211316582635739e-02 2.824725439296710966e-02 2.831191608388851713e-02 2.821927850967471257e-02 2.797287033882771626e-02 2.757743156110004784e-02 2.703965102159942152e-02 2.636874587809745485e-02 2.557686427289120393e-02 2.467930227936314391e-02 2.369453178530285531e-02 2.264403860590051554e-02 2.155197168960969537e-02 2.044460695117699192e-02 1.934963498076549063e-02 1.829529187790539246e-02 1.730936681367030092e-02 1.641813717327350944e-02 1.564529921626054906e-02 1.501097487584379143e-02 1.453087917246515329e-02 1.421572450650638100e-02 1.407091713565713532e-02 1.409657001085291156e-02 1.428782031350703252e-02 1.463540641874067072e-02 1.512643393062372901e-02 1.574524784737624597e-02 1.647432852784113874e-02 1.729514069428590359e-02 1.818888313987766098e-02 1.913710761233929428e-02 2.012219475309123817e-02 2.112769056460552311e-02 2.213851765465618682e-02 2.314108158359142256e-02 2.412329482447296905e-02 2.507454021804995936e-02 2.598559343014853612e-02 2.684852068210738171e-02 2.765656456973061839e-02 2.840402752703743636e-02 2.908615965478808171e-02 2.969905531234277168e-02 3.023956106996613866e-02 3.070519629344841198e-02 3.109408671823386816e-02 3.140491079605752661e-02 3.163685829894995888e-02 3.178960058931620120e-02 3.186327206807491874e-02 3.185846256308243196e-02 3.177622079155468376e-02 3.161806949906832004e-02 3.138603341546710584e-02 3.108268173348040578e-02 3.071118734581455151e-02 3.027540547492412262e-02 2.977997445702850951e-02 2.923044110553760927e-02 2.863341202797116403e-02 2.799673019951007258e-02 2.732967266654643540e-02 2.664316013975506423e-02 2.594996221456451549e-02 2.526487304711563450e-02 2.460482198228745518e-02 2.398887304292511222e-02 2.343805845936130366e-02 2.297498773109579728e-02 2.262317912973598952e-02 2.240607925588334812e-02 2.234577107448686845e-02 2.246142115861341979e-02 2.276757659888358279e-02 2.327247890603519054e-02 2.397659962512896370e-02 2.487160432332313417e-02 2.593990962204311204e-02 2.715491649016018791e-02 2.848190012921712061e-02 2.987943841458915589e-02 3.130119126894477521e-02 3.269781636874654479e-02 3.401882201036381115e-02 3.521420408046493228e-02 3.623577402290855537e-02 3.703814293198231383e-02 3.757937318647174701e-02
1.435471516257991534e-02 1.716923901183800560e-02 1.962338255396287034e-02 2.174933080270604127e-02 2.357827378087745673e-02 2.513943763565580983e-02 2.645922061461722027e-02 2.756051640611439923e-02 2.846229558342391538e-02 2.917949137292184802e-02 2.972320248081043725e-02 3.010118955375394589e-02 3.031861004735338441e-02 3.037891453533187597e-02 3.028481864695639278e-02 3.003926838375503214e-02 2.964632938983767854e-02 2.911194836417794335e-02 2.844455284154608424e-02 2.765547080052456821e-02 2.675916234842809494e-02 2.577326200846917839e-02 2.471843303152249441e-02 2.361803655793618534e-02 2.249762051824973075e-02 2.138423784826190208e-02 2.030561222137675439e-02 1.928918230705338466e-02 1.836107136739018042e-02 1.754504511558033220e-02 1.686153332007672007e-02 1.632679546826377309e-02 1.595230465913262743e-02 1.574440574372885579e-02 1.570427552329490758e-02 1.582817929472139784e-02 1.610798553973475170e-02 1.653187519228879743e-02 1.708516782741410084e-02 1.775118550062050951e-02 1.851208417978507728e-02 1.934959917616512620e-02 2.024567048746622744e-02 2.118293280386514613e-02 2.214507055939168856e-02 2.311704962894571211e-02 2.408524398458904842e-02 2.503747847170051041e-02 2.596300882214716207e-02 2.685245810293256444e-02 2.769772587994378740e-02 2.849188311735622106e-02 2.922906267441917685e-02 2.990435245749048510e-02 3.051369595270650437e-02 3.105380302769169057e-02 3.152207251896377294e-02 3.191652715832608150e-02 3.223576077163590320e-02 3.247889734500071512e-02 3.264556144341859006e-02 3.273585954224837724e-02 3.275037205909057253e-02 3.269015622531972615e-02 3.255676038661774185e-02 3.235225083927742440e-02 3.207925284949957045e-02 3.174100799957940006e-02 3.134145035810245034e-02 3.088530403827649540e-02 3.037820429512198828e-02 2.982684316949654746e-02 2.923913851788480581e-02 2.862442175056870153e-02 2.799363444373766108e-02 2.735951701854804144e-02 2.673676397863454512e-02 2.614211031262099472e-02 2.559430383961294742e-02 2.511391065188988206e-02 2.472289851918679782e-02 2.444395001493665509e-02 2.429947697998606146e-02 2.431034298727744597e-02 2.449434946666069132e-02 2.486459762484044544e-02 2.542789016027322685e-02 2.618336841282447106e-02 2.712157775267593635e-02 2.822411006802301794e-02 2.946389275562457180e-02 3.080609641003181562e-02 3.220954269547454674e-02 3.362843152364746596e-02 3.501418443402654762e-02 3.631721786659971446e-02 3.748850449397954365e-02 3.848083727499192891e-02 3.924976522576656413e-02 3.975421285576358210e-02
1.647432788059896222e-02 1.925341702301747171e-02 2.167068867433506740e-02 2.375920573189247570e-02 2.555108873559850530e-02 2.707650523561131589e-02 2.836275662480925580e-02 2.943354972820057605e-02 3.030852970709047023e-02 3.100312624737691647e-02 3.152873025049325595e-02 3.189317988864125847e-02 3.210150050568474217e-02 3.215681879185174757e-02 3.206136129115321615e-02 3.181745037170943119e-02 3.142842409047651164e-02 3.089942516480971915e-02 3.023802379001537532e-02 2.945465574842177914e-02 2.856286926874157528e-02 2.757938120388891620e-02 2.652394637918457226e-02 2.541904528650215656e-02 2.428939681595426378e-02 2.316130640573901139e-02 2.206186723349600268e-02 2.101804325294839154e-02 2.005567707500843441e-02 1.919848057559147073e-02 1.846707822042007591e-02 1.787817856068210295e-02 1.744394500484756916e-02 1.717162152529216196e-02 1.706344379391781449e-02 1.711683537562969787e-02 1.732485772973001853e-02 1.767685763252782247e-02 1.815924043781835112e-02 1.875629395078269590e-02 1.945099453759816660e-02 2.022574140191146785e-02 2.106298288812268049e-02 2.194571664682737691e-02 2.285786092253789745e-02 2.378450571654288498e-02 2.471205984066682931e-02 2.562831336776593902e-02 2.652243555057211613e-02 2.738492686626988262e-02 2.820754129994086992e-02 2.898319197061232158e-02 2.970585019024398962e-02 3.037044530926994584e-02 3.097277038345460851e-02 3.150939684049119949e-02 3.197759991611934943e-02 3.237529562233475849e-02 3.270098934628643678e-02 3.295373579956497462e-02 3.313310989219050984e-02 3.323918815106491342e-02 3.327254050466056656e-02 3.323423258546095993e-02 3.312583913106600247e-02 3.294946956013122819e-02 3.270780731292975002e-02 3.240416500782715425e-02 3.204255777091598312e-02 3.162779710055409893e-02 3.116560713615410677e-02 3.066276396502636351e-02 3.012725633488176971e-02 2.956846254167670718e-02 2.899733307363736023e-02 2.842656168951382054e-02 2.787071914790871865e-02 2.734631440937948174e-02 2.687173911328648301e-02 2.646704465926310798e-02 2.615350035250275235e-02 2.595288942032571156e-02 2.588652061739725452e-02 2.597396824806065541e-02 2.623160089652655860e-02 2.667101216956115420e-02 2.729751350593797796e-02 2.810887505932601824e-02 2.909449329371646686e-02 3.023511838416702291e-02 3.150319738040429501e-02 3.286379772433658392e-02 3.427599261759114307e-02 3.569453441371617936e-02 3.707162450582392882e-02 3.835860617508660142e-02 3.950744963782183705e-02 4.047195159409636145e-02 4.120862207457236248e-02 4.167727106269487891e-02
1.836788899897331614e-02 2.110630607024015920e-02 2.348124153148918938e-02 2.552674407402108145e-02 2.727598831972669058e-02 2.876021794352497454e-02 3.000777699429052134e-02 3.104332206539971509e-02 3.188729859423198448e-02 3.255574008274397108e-02 3.306041295175662226e-02 3.340928888913038963e-02 3.360728913811735635e-02 3.365721832180747219e-02 3.356079311766189260e-02 3.331967346395437596e-02 3.293641774223088348e-02 3.241530346585331374e-02 3.176297624598539010e-02 3.098890823544533935e-02 3.010566070943967998e-02 2.912895356324409976e-02 2.807754830868242762e-02 2.697295248977480547e-02 2.583895447392095535e-02 2.470100030871522426e-02 2.358543019971207078e-02 2.251860167047722502e-02 2.152593892316913976e-02 2.063096134281267729e-02 1.985435542348552504e-02 1.921316012399160514e-02 1.872013277450187280e-02 1.838334971386717046e-02 1.820607373421479630e-02 1.818689245896275633e-02 1.832010296996780183e-02 1.859629362305934355e-02 1.900305816819599855e-02 1.952577193387748655e-02 2.014836440931304720e-02 2.085403460318128663e-02 2.162587166639566572e-02 2.244736008411335471e-02 2.330276368445549640e-02 2.417739426704630309e-02 2.505777833471641014e-02 2.593173948657042857e-02 2.678841520339327043e-02 2.761822587970165499e-02 2.841281183713459044e-02 2.916495134775078102e-02 2.986846987677895318e-02 3.051814812510441136e-02 3.110963417719271942e-02 3.163936320615436809e-02 3.210448675631730198e-02 3.250281258111407945e-02 3.283275531039588080e-02 3.309329780341509902e-02 3.328396286279484972e-02 3.340479499918976719e-02 3.345635211152263311e-02 3.343970725370758873e-02 3.335646106566286101e-02 3.320876591778218478e-02 3.299936330315263872e-02 3.273163643651707394e-02 3.240968027612750602e-02 3.203839112537328754e-02 3.162357739920661909e-02 3.117209181329537449e-02 3.069198289498014862e-02 3.019266004544393298e-02 2.968506117965441157e-02 2.918180516568662231e-02 2.869730310347542654e-02 2.824779362603305893e-02 2.785125924461452629e-02 2.752717547355000918e-02 2.729604501549218187e-02 2.717867902008661019e-02 2.719520924132728598e-02 2.736384986113640436e-02 2.769947340817057249e-02 2.821211453560220836e-02 2.890555699304866999e-02 2.977617955669191463e-02 3.081222516122719343e-02 3.199361080887160730e-02 3.329232141741641365e-02 3.467334541792835290e-02 3.609603433519759791e-02 3.751572000783089111e-02 3.888540958122715246e-02 4.015739734209034656e-02 4.128467341191899981e-02 4.222205896109779144e-02 4.292704434071825670e-02 4.336034303642453264e-02
2.004777398881980865e-02 2.274029078095006484e-02 2.506741086985803113e-02 2.706427696621981072e-02 2.876524445054051693e-02 3.020277393904584676e-02 3.140640055440666739e-02 3.240187845682682838e-02 3.321059159685980228e-02 3.384929751505125206e-02 3.433023359070892788e-02 3.466157149636842072e-02 3.484816466351581266e-02 3.489250335273682418e-02 3.479577725435070018e-02 3.455894693569520892e-02 3.418373962770367147e-02 3.367350637498216920e-02 3.303390077972435945e-02 3.227336000174215597e-02 3.140338383352588719e-02 3.043861700007859106e-02 2.939674429492507637e-02 2.829820961523307407e-02 2.716577058410707055e-02 2.602390227445602541e-02 2.489806805809509707e-02 2.381388341191518349e-02 2.279620913578238317e-02 2.186822221140386976e-02 2.105052279904323295e-02 2.036034149600663562e-02 1.981090918433350834e-02 1.941104107824958777e-02 1.916496744905627284e-02 1.907241862198189378e-02 1.912894547777594864e-02 1.932643359521742099e-02 1.965375324831462531e-02 2.009748080684332916e-02 2.064262959662499161e-02 2.127333805069362913e-02 2.197347709444256308e-02 2.272715409796631503e-02 2.351910490164947631e-02 2.433497679334120298e-02 2.516151323714527210e-02 2.598665571311734035e-02 2.679957977090777210e-02 2.759068207115803611e-02 2.835153353038913360e-02 2.907481133071958615e-02 2.975421998039333438e-02 3.038440913314931213e-02 3.096089367981180729e-02 3.147997980078070385e-02 3.193869923316960957e-02 3.233475294104235648e-02 3.266646464145144674e-02 3.293274418623089173e-02 3.313306058473211579e-02 3.326742443616645395e-02 3.333637968785323896e-02 3.334100491682522732e-02 3.328292471531122537e-02 3.316433220677390825e-02 3.298802417457374903e-02 3.275745067220729029e-02 3.247678119172547201e-02 3.215098934395575758e-02 3.178595735429833730e-02 3.138860026329438196e-02 3.096700727804911971e-02 3.053059399411855654e-02 3.009025401444667333e-02 2.965849181918899999e-02 2.924951088269157895e-02 2.887922276447421610e-02 2.856513564073432515e-02 2.832607666042757932e-02 2.818170443524604940e-02 2.815177897478695832e-02 2.825517888679553169e-02 2.850869015640810147e-02 2.892563438940979476e-02 2.951444986450044161e-02 3.027737514296512111e-02 3.120940016738897940e-02 3.229763461169397193e-02 3.352119602976921103e-02 3.485164909770532143e-02 3.625394805114594970e-02 3.768776617659819195e-02 3.910905398515807097e-02 4.047165791420453962e-02 4.172885095089134272e-02 4.283466554719241037e-02 4.374496543036950763e-02 4.441823599564678759e-02 4.481610643342205658e-02
2.152724093903535252e-02 2.416866279163851564e-02 2.644249402624628334e-02 2.838507868831237346e-02 3.003208173670043890e-02 3.141732705351837907e-02 3.257169803729912522e-02 3.352220573378782154e-02 3.429132415350560903e-02 3.489666898920126131e-02 3.535105723418104084e-02 3.566293847793226141e-02 3.583714361461629722e-02 3.587586246900676540e-02 3.577974421820098033e-02 3.554901454585936843e-02 3.518451796938528581e-02 3.468861689799561387e-02 3.406590442833988541e-02 3.332371063784827364e-02 3.247239927882356741e-02 3.152546253936140686e-02 3.049942681195246322e-02 2.941358407452145107e-02 2.828956376868516087e-02 2.715076102546003234e-02 2.602164027055438658e-02 2.492693934860770733e-02 2.389080803366510491e-02 2.293592476989667756e-02 2.208264443554123005e-02 2.134823510439714037e-02 2.074626068819029889e-02 2.028615751378522528e-02 1.997303653637638385e-02 1.980772110764640950e-02 1.978700657980740629e-02 1.990410666992261171e-02 2.014923601894853811e-02 2.051027087886706304e-02 2.097343061366467934e-02 2.152393030820435454e-02 2.214656680852103085e-02 2.282621426332736431e-02 2.354821836801399004e-02 2.429868943886268062e-02 2.506470239771204159e-02 2.583441664973520555e-02 2.659713107781155883e-02 2.734328957523873491e-02 2.806445135867252638e-02 2.875323833753642630e-02 2.940326952920012740e-02 3.000909022663732564e-02 3.056610154916810859e-02 3.107049424271960542e-02 3.151918918118040702e-02 3.190978594929821249e-02 3.224052013114841325e-02 3.251022944771806561e-02 3.271832864263223700e-02 3.286479296962839525e-02 3.295015025616720300e-02 3.297548177378072792e-02 3.294243250457316169e-02 3.285323181371377355e-02 3.271072596301986130e-02 3.251842424968878764e-02 3.228056071296522833e-02 3.200217316656427807e-02 3.168920059061901967e-02 3.134859842206703939e-02 3.098846876743252196e-02 3.061819879844369235e-02 3.024859543671370998e-02 2.989199793192487062e-02 2.956234245047525966e-02 2.927514515548550536e-02 2.904736393046651599e-02 2.889709601235214420e-02 2.884307203234690725e-02 2.890391907367483026e-02 2.909718830766044873e-02 2.943817650545445253e-02 2.993861191758512286e-02 3.060531645358611358e-02 3.143898743446459781e-02 3.243325252415176635e-02 3.357413323667095967e-02 3.484000528689044918e-02 3.620207639216670853e-02 3.762532917298135049e-02 3.906981561274092130e-02 4.049215315624130063e-02 4.184706597260037103e-02 4.308883470363210344e-02 4.417255486586893487e-02 4.505514692525995624e-02 4.569610062722907762e-02 4.605796675070795293e-02
2.282035834091148893e-02 2.540555794858243704e-02 2.762066302069632329e-02 2.950332377672084880e-02 3.109064435367957582e-02 3.241796273151624497e-02 3.351767605462849242e-02 3.441822311099518306e-02 3.514333333565080458e-02 3.571162944141743900e-02 3.613663092619541495e-02 3.642715564668068395e-02 3.658806691887489526e-02 3.662127459627488590e-02 3.652687729559749713e-02 3.630433121255747381e-02 3.595354566011964292e-02 3.547583030078465399e-02 3.487464704425533718e-02 3.415614502152741760e-02 3.332947650678898949e-02 3.240690410601287236e-02 3.140371578554003451e-02 3.033796628905467002e-02 2.923006348373780039e-02 2.810221831881291182e-02 2.697777896164588185e-02 2.588047409261633527e-02 2.483359714294894674e-02 2.385917133827090975e-02 2.297714284464025258e-02 2.220465375259641008e-02 2.155544588313502985e-02 2.103943909268140428e-02 2.066251391302084683e-02 2.042650959860483131e-02 2.032942788945337614e-02 2.036581354402107469e-02 2.052726812886951357e-02 2.080304571178455061e-02 2.118067849172315317e-02 2.164658605218532789e-02 2.218663189108843747e-02 2.278660284628808430e-02 2.343259889745459568e-02 2.411133105096854856e-02 2.481033276859232611e-02 2.551809547170321227e-02 2.622414127958947599e-02 2.691904681233271701e-02 2.759443117742549356e-02 2.824291970145200933e-02 2.885809300405196148e-02 2.943442896383861168e-02 2.996724320675902761e-02 3.045263207722575041e-02 3.088742068473293578e-02 3.126911756251831570e-02 3.159587671288380251e-02 3.186646731608210048e-02 3.208025111236526006e-02 3.223716739685381083e-02 3.233772566344689237e-02 3.238300616680336169e-02 3.237466900692076432e-02 3.231497273626061234e-02 3.220680388533241761e-02 3.205371911498982457e-02 3.186000181568891809e-02 3.163073473078983899e-02 3.137188938911981972e-02 3.109043156729134061e-02 3.079443943168869852e-02 3.049322723330143495e-02 3.019746234573864041e-02 2.991925714639404044e-02 2.967221016712348267e-02 2.947136397478561376e-02 2.933304185701679501e-02 2.927452366059768440e-02 2.931352555761122108e-02 2.946746152983614753e-02 2.975248747129248528e-02 3.018236146798895791e-02 3.076719237824334166e-02 3.151218618824935119e-02 3.241652610856994576e-02 3.347252836650787405e-02 3.466519508343651745e-02 3.597223922881744723e-02 3.736459295255304541e-02 3.880734385473505466e-02 4.026098923696732473e-02 4.168286727302941697e-02 4.302862015747106056e-02 4.425356395813230537e-02 4.531387447629797727e-02 4.616753793903709963e-02 4.677505155473905135e-02 4.709988685665555952e-02
2.394190957334895245e-02 2.646587066498259921e-02 2.861688953882597988e-02 3.043402304002395045e-02 3.195594307441521759e-02 3.321965558625200599e-02 3.425924421511489237e-02 3.510475747872147251e-02 3.578135958707459596e-02 3.630884452196909973e-02 3.670157229337099591e-02 3.696883268781857995e-02 3.711558676907449755e-02 3.714349172993473142e-02 3.705208891833102619e-02 3.684003076884930644e-02 3.650623703423041405e-02 3.605089739613739214e-02 3.547626842737518910e-02 3.478724142236355038e-02 3.399167977416164138e-02 3.310053899714262421e-02 3.212778991148553670e-02 3.109016788957954733e-02 3.000677081421723388e-02 2.889852774037571237e-02 2.778756085217863603e-02 2.669646604550325944e-02 2.564754233857877846e-02 2.466200643813305088e-02 2.375923457201524827e-02 2.295607716115242308e-02 2.226629116914106282e-02 2.170012882256113981e-02 2.126410974825229672e-02 2.096098764686242510e-02 2.078990475297758794e-02 2.074671041958528819e-02 2.082440692534045373e-02 2.101367789826807247e-02 2.130345320170112106e-02 2.168146812535055520e-02 2.213478275328023548e-02 2.265023752702133297e-02 2.321483145431184683e-02 2.381601871943503021e-02 2.444192678082607317e-02 2.508150408769760017e-02 2.572460841814053906e-02 2.636204789979875937e-02 2.698558649161127490e-02 2.758792455070564753e-02 2.816266348545963527e-02 2.870426171326922668e-02 2.920798741321209077e-02 2.966987202033553872e-02 3.008666711660183679e-02 3.045580635591807472e-02 3.077537331162504344e-02 3.104407563372929210e-02 3.126122562311648562e-02 3.142672724268571333e-02 3.154106966274264345e-02 3.160532765104541453e-02 3.162116943290240595e-02 3.159087301961280986e-02 3.151735237276639262e-02 3.140419505072699485e-02 3.125571305307421610e-02 3.107700828347799427e-02 3.087405320084125188e-02 3.065378560736416180e-02 3.042421391531994340e-02 3.019452547092877498e-02 2.997518553611379713e-02 2.977800848877302370e-02 2.961617617942772368e-02 2.950417210848880339e-02 2.945759563520932919e-02 2.949281978987391625e-02 2.962646173333964919e-02 2.987464858973751247e-02 3.025208434165439775e-02 3.077095475703789385e-02 3.143974305441519373e-02 3.226206230185137830e-02 3.323563250996680596e-02 3.435153261985304102e-02 3.559383538353819848e-02 3.693968808101220913e-02 3.835984258816285686e-02 3.981957765603098831e-02 4.127990794402289221e-02 4.269894788734807101e-02 4.403329670739714041e-02 4.523933005708386662e-02 4.627431599280117797e-02 4.709730924187622431e-02 4.766981077269021733e-02 4.795620508279226091e-02
2.490727080252053485e-02 2.736514169265380492e-02 2.944684364665047308e-02 3.119293396101953386e-02 3.264377766283044907e-02 3.383820356887976694e-02 3.481216030432462277e-02 3.559749830624605454e-02 3.622100962246867228e-02 3.670383943174481550e-02 3.706134205407531773e-02 3.730339697118636305e-02 3.743513933738378680e-02 3.745800815366694125e-02 3.737098399882995275e-02 3.717188102146582601e-02 3.685857222654684295e-02 3.643005572270775067e-02 3.588730375970913128e-02 3.523386851695885225e-02 3.447624391334110777e-02 3.362399943678778119e-02 3.268971077585509227e-02 3.168871492524404782e-02 3.063871697406289618e-02 2.955927432859071363e-02 2.847118343957045355e-02 2.739579517526457772e-02 2.635428793164624334e-02 2.536693172684957934e-02 2.445238058449361596e-02 2.362703283217652481e-02 2.290449796475636790e-02 2.229520341004477546e-02 2.180616474761096213e-02 2.144092958619851774e-02 2.119969023539791664e-02 2.107954584072912682e-02 2.107488303123387571e-02 2.117783696802164051e-02 2.137879262823312587e-02 2.166688885354241603e-02 2.203049400007383099e-02 2.245763041469281407e-02 2.293633389305869269e-02 2.345494249895477279e-02 2.400231583138713251e-02 2.456799065409082800e-02 2.514228175684361799e-02 2.571633824860509315e-02 2.628216555947771732e-02 2.683262264660240745e-02 2.736140261432994450e-02 2.786300345682748633e-02 2.833269411849492769e-02 2.876647967882658627e-02 2.916106827989392233e-02 2.951384145995184644e-02 2.982282884104757448e-02 3.008668763062178481e-02 3.030468711733845869e-02 3.047669824679954953e-02 3.060318842884613560e-02 3.068522192764714523e-02 3.072446648546438286e-02 3.072320718602516987e-02 3.068436891060932759e-02 3.061154899045590710e-02 3.050906169240064775e-02 3.038199583562829764e-02 3.023628593948947743e-02 3.007879564049455168e-02 2.991740949476131770e-02 2.976112555950576402e-02 2.962013630721543542e-02 2.950587966961234002e-02 2.943103586231482494e-02 2.940944006348715847e-02 2.945587745993089729e-02 2.958572752060487088e-02 2.981443069271691101e-02 3.015676480514240670e-02 3.062594098291832739e-02 3.123255851560623186e-02 3.198349091534329752e-02 3.288080475677169351e-02 3.392083075213923882e-02 3.509350566026422230e-02 3.638208049871707872e-02 3.776324735606488570e-02 3.920768210708314855e-02 4.068094552746474857e-02 4.214464263162484570e-02 4.355771758331040272e-02 4.487776131559479548e-02 4.606222738044010723e-02 4.706948130495218485e-02 4.785964188652795659e-02 4.839520294068325179e-02 4.864144715594057033e-02
2.573226000281107761e-02 2.811941641434045555e-02 3.012676276324512126e-02 3.179644147909289204e-02 3.317063016826634486e-02 3.429013392980393565e-02 3.519294845098817209e-02 3.591292693244197559e-02 3.647869520771406665e-02 3.691294511995740768e-02 3.723219526354584058e-02 3.744704731055144981e-02 3.756289845964290441e-02 3.758101147431965050e-02 3.749980579247075285e-02 3.731622198018440945e-02 3.702702536856872922e-02 3.662994535853019568e-02 3.612458472502177304e-02 3.551306952483835461e-02 3.480043919123093632e-02 3.399479582366248670e-02 3.310724206285400872e-02 3.215164043474096761e-02 3.114422638363802467e-02 3.010310493539336552e-02 2.904765894549446101e-02 2.799789628805719049e-02 2.697376438622740846e-02 2.599446268552602773e-02 2.507778598282125668e-02 2.423953261333298970e-02 2.349301009330559062e-02 2.284866606251317878e-02 2.231386412222110399e-02 2.189281310460541863e-02 2.158664584932996552e-02 2.139363152061289630e-02 2.130949565954452785e-02 2.132781586071137020e-02 2.144045878593345278e-02 2.163802598856367707e-02 2.191028088791478756e-02 2.224653601375715245e-02 2.263598708895762923e-02 2.306798757606106504e-02 2.353226324926337848e-02 2.401907079258654154e-02 2.451930730318567161e-02 2.502457905048152340e-02 2.552723818522188715e-02 2.602039562673460690e-02 2.649791738423180887e-02 2.695441034271107289e-02 2.738520225796224616e-02 2.778631949041929922e-02 2.815446494485666917e-02 2.848699781372671103e-02 2.878191606050283999e-02 2.903784212284918342e-02 2.925401205132463142e-02 2.943026821023659451e-02 2.956705573256299818e-02 2.966542311576916488e-02 2.972702763755185121e-02 2.975414661495656352e-02 2.974969586255115858e-02 2.971725693508478483e-02 2.966111474587088126e-02 2.958630677992068678e-02 2.949868418900723765e-02 2.940498337055321917e-02 2.931290401714011298e-02 2.923118596740992975e-02 2.916967251479554712e-02 2.913934238207218155e-02 2.915228691103786962e-02 2.922160411727712376e-02 2.936117852826910027e-02 2.958531692527781309e-02 2.990821710387980836e-02 3.034326100376874211e-02 3.090214536062951475e-02 3.159389083117210978e-02 3.242380036534211335e-02 3.339246325381264174e-02 3.449491553445725722e-02 3.572006416540724622e-02 3.705045897768449725e-02 3.846245555942665734e-02 3.992676171425343229e-02 4.140931083359807724e-02 4.287236789193677594e-02 4.427575463817474272e-02 4.557808139616899290e-02 4.673789021240246783e-02 4.771464138812042677e-02 4.846950562050464373e-02 4.896595132982135834e-02 4.917013784434677570e-02
2.643295630415412600e-02 2.874507213244003809e-02 3.067328862950780693e-02 3.226140618020216511e-02 3.355352549926488709e-02 3.459257679471539060e-02 3.541878566181975996e-02 3.606821530922803276e-02 3.657154269290383009e-02 3.695321662847696892e-02 3.723110608656608755e-02 3.741668254240731323e-02 3.751570530629962097e-02 3.752931069243194140e-02 3.745535977293886626e-02 3.728988308748607677e-02 3.702847289251053747e-02 3.666750620453684828e-02 3.620512386768125895e-02 3.564193192546660782e-02 3.498142483672317393e-02 3.423015265388904688e-02 3.339766652768732386e-02 3.249628110168858997e-02 3.154069149238716147e-02 3.054747939748225435e-02 2.953453953535035287e-02 2.852045532903339092e-02 2.752385190251957145e-02 2.656275473967205716e-02 2.565398294616868732e-02 2.481260588642581963e-02 2.405149002287370122e-02 2.338095838039435867e-02 2.280857806256247552e-02 2.233908216532608931e-02 2.197442233056351099e-02 2.171393843622402425e-02 2.155462390006666548e-02 2.149145981993422216e-02 2.151778918231005491e-02 2.162570354175220866e-02 2.180641830526032499e-02 2.205061814449792157e-02 2.234876012735448683e-02 2.269132804768923817e-02 2.306903651237346073e-02 2.347298726575861375e-02 2.389478289037635234e-02 2.432660450367689006e-02 2.476126057350833132e-02 2.519221374846963846e-02 2.561359189148407212e-02 2.602018853302029075e-02 2.640745689580124150e-02 2.677150060897842340e-02 2.710906330689840868e-02 2.741751854150541526e-02 2.769486084874521470e-02 2.793969840205597424e-02 2.815124745402353829e-02 2.832932869840782547e-02 2.847436576236298672e-02 2.858738624061174169e-02 2.867002597859668114e-02 2.872453765526600256e-02 2.875380504305323839e-02 2.876136454145093724e-02 2.875143556956519936e-02 2.872896100982579026e-02 2.869965794370577666e-02 2.867007722888147495e-02 2.864766787919538829e-02 2.864083864158421117e-02 2.865900467616938271e-02 2.871260211812773355e-02 2.881304812286554495e-02 2.897261973569638382e-02 2.920422293496215474e-02 2.952102510507551708e-02 2.993593163877960109e-02 3.046090150314662015e-02 3.110611746225881019e-02 3.187905248301370342e-02 3.278350077094857595e-02 3.381866414990680053e-02 3.497839569227211703e-02 3.625069746276439464e-02 3.761754615409486358e-02 3.905508214752107660e-02 4.053415143102929302e-02 4.202114558284461565e-02 4.347905181551665194e-02 4.486860866154402522e-02 4.614946433163880785e-02 4.728125084992812477e-02 4.822451194665508534e-02 4.894145009018105452e-02 4.939648289910427564e-02 4.955661844276299660e-02
2.702549087341238332e-02 2.925861474504796306e-02 3.110327180135752032e-02 3.260497855223398744e-02 3.380985709898410435e-02 3.476310341983419872e-02 3.550735314470571113e-02 3.608109010956287582e-02 3.651726884664735495e-02 3.684231890860571734e-02 3.707566132773792295e-02 3.722980016905975964e-02 3.731096939610555746e-02 3.732023686482299069e-02 3.725491136668181158e-02 3.711007568144655822e-02 3.688007867449124427e-02 3.655985409720616947e-02 3.614598032733093436e-02 3.563744184050870317e-02 3.503609145823916721e-02 3.434683868639364090e-02 3.357760387715823941e-02 3.273908296362026266e-02 3.184436642340982698e-02 3.090845202238809430e-02 2.994768611679672621e-02 2.897916427020505101e-02 2.802011921456844593e-02 2.708732259800541650e-02 2.619652589053887703e-02 2.536196442093866660e-02 2.459594598878445115e-02 2.390854129720702478e-02 2.330738747060511970e-02 2.279760852610345986e-02 2.238184863738445010e-02 2.206040637703529650e-02 2.183145185397473639e-02 2.169130454405356415e-02 2.163474801964168637e-02 2.165535865468957294e-02 2.174582827773676244e-02 2.189826499324122253e-02 2.210446124600326176e-02 2.235612299006617745e-02 2.264505803326819985e-02 2.296332495542623836e-02 2.330334632856795318e-02 2.365799134073758372e-02 2.402063347966322884e-02 2.438518885739804354e-02 2.474614024950683513e-02 2.509855116218422111e-02 2.543807337521835840e-02 2.576095054834187659e-02 2.606401969868005208e-02 2.634471170395300682e-02 2.660105148392498398e-02 2.683165817009156018e-02 2.703574538959369750e-02 2.721312175617559767e-02 2.736419176560110633e-02 2.748995751565868131e-02 2.759202198210259499e-02 2.767259493697006925e-02 2.773450292912387274e-02 2.778120496660487285e-02 2.781681552472956703e-02 2.784613610272002743e-02 2.787469559527290530e-02 2.790879806388900722e-02 2.795557394881405602e-02 2.802302730039866324e-02 2.812006731863539444e-02 2.825650768254193285e-02 2.844301243274838936e-02 2.869096349112152528e-02 2.901222354244014159e-02 2.941877045658584239e-02 2.992218711730504008e-02 3.053300434305823013e-02 3.125991433241891160e-02 3.210889589195899119e-02 3.308231687466892806e-02 3.417809851262756243e-02 3.538903501032632931e-02 3.670235555234191427e-02 3.809959356962838717e-02 3.955679265231842878e-02 4.104503662118744872e-02 4.253125164191028790e-02 4.397919885706824683e-02 4.535056175707136844e-02 4.660603420420621895e-02 4.770632971953966267e-02 4.861305517512626295e-02 4.928941685087382535e-02 4.970074941779370481e-02 4.981487605796277446e-02
2.752581296992731574e-02 2.967644761425838537e-02 3.143354554656700717e-02 3.284438020529532182e-02 3.395717763581236615e-02 3.481952810017456545e-02 3.547665055051499317e-02 3.596965962250238402e-02 3.633401986648079895e-02 3.659837660518838742e-02 3.678391899642666218e-02 3.690436127409570805e-02 3.696653722582600443e-02 3.697151282045792881e-02 3.691605431281729660e-02 3.679425788070855158e-02 3.659915374971257906e-02 3.632413415434864595e-02 3.596410615623370916e-02 3.551632322399842639e-02 3.498089355975370768e-02 3.436099374798241846e-02 3.366283325691971778e-02 3.289542128016505196e-02 3.207018605440455777e-02 3.120049162477159937e-02 3.030109071561268991e-02 2.938754654527643909e-02 2.847565181298838607e-02 2.758086968419418833e-02 2.671781895091893816e-02 2.589982298501186664e-02 2.513853899864542177e-02 2.444368005040313541e-02 2.382283708397790398e-02 2.328140231319505982e-02 2.282258902129221528e-02 2.244753703550110557e-02 2.215548847149285960e-02 2.194401534652905272e-02 2.180927958631989627e-02 2.174630673899868860e-02 2.174925703336520744e-02 2.181168077896517010e-02 2.192674894675314401e-02 2.208745358040324624e-02 2.228677607476117761e-02 2.251782407155114574e-02 2.277393965975714821e-02 2.304878274412566763e-02 2.333639395684093676e-02 2.363124147595677127e-02 2.392825573415729642e-02 2.422285539820591069e-02 2.451096729600550986e-02 2.478904225971428898e-02 2.505406820741318957e-02 2.530358124598547365e-02 2.553567516892482625e-02 2.574900945599000943e-02 2.594281575902678341e-02 2.611690287542885180e-02 2.627166035730838650e-02 2.640806116283651167e-02 2.652766409787978355e-02 2.663261717658566702e-02 2.672566338296218993e-02 2.681015054921911944e-02 2.689004705927019664e-02 2.696996468970214861e-02 2.705518895229746049e-02 2.715171564373099547e-02 2.726628982057157854e-02 2.740644006997944304e-02 2.758049685580733074e-02 2.779757921991229952e-02 2.806752982136438007e-02 2.840077512515424424e-02 2.880808671165262583e-02 2.930022252043214606e-02 2.988743459155376869e-02 3.057884319967077436e-02 3.138169580953401733e-02 3.230055113225410029e-02 3.333645020062137032e-02 3.448615303411604188e-02 3.574152616602366966e-02 3.708915944038295581e-02 3.851026929702349583e-02 3.998091314586670053e-02 4.147250150999835100e-02 4.295255907961731401e-02 4.438565963134771808e-02 4.573444718401991488e-02 4.696065740936234550e-02 4.802606657144237179e-02 4.889331557435462605e-02 4.952657914357303653e-02 4.989207074292474620e-02 4.995839005309005848e-02
2.794943751446116176e-02 3.001461820741080366e-02 3.168067383007357185e-02 3.299665573829479309e-02 3.401295732594225574e-02 3.477967528063648922e-02 3.534477367676197579e-02 3.575220308937667596e-02 3.604017249060700173e-02 3.623978618927197609e-02 3.637422993506041896e-02 3.645861957133204878e-02 3.650052638106646152e-02 3.650108995566778147e-02 3.645654797987231410e-02 3.635997066241402481e-02 3.620298993504292295e-02 3.597735136811439083e-02 3.567617401070066058e-02 3.529486350562967972e-02 3.483167470094997165e-02 3.428795563388466194e-02 3.366812467937046333e-02 3.297943969851481472e-02 3.223161636645825723e-02 3.143634650377232637e-02 3.060675924414224189e-02 2.975686016744691006e-02 2.890097701814083389e-02 2.805323546545140934e-02 2.722708422883561921e-02 2.643488526827936919e-02 2.568758110992681171e-02 2.499444738834031079e-02 2.436293422806355691e-02 2.379859531016659258e-02 2.330509873423705983e-02 2.288430956161660590e-02 2.253643066762658909e-02 2.226018657265368614e-02 2.205303440410226468e-02 2.191138699052858074e-02 2.183083505124799525e-02 2.180635814860738472e-02 2.183251710715678959e-02 2.190362359797734526e-02 2.201388524351552065e-02 2.215752673042068951e-02 2.232888894301544858e-02 2.252250905532429334e-02 2.273318491609142844e-02 2.295602703688464155e-02 2.318650116945459444e-02 2.342046395179628662e-02 2.365419351401128190e-02 2.388441634529768140e-02 2.410833119067063920e-02 2.432363030930945191e-02 2.452851810900393698e-02 2.472172698467666949e-02 2.490253013683690897e-02 2.507075122533636291e-02 2.522677091621822187e-02 2.537153068822267654e-02 2.550653465255990973e-02 2.563385056021764280e-02 2.575611155860155210e-02 2.587652052046451531e-02 2.599885878167428055e-02 2.612750074521829821e-02 2.626743487975313415e-02 2.642429001520627679e-02 2.660436341377555788e-02 2.681464386277924994e-02 2.706281913630633265e-02 2.735725295552112260e-02 2.770691265304463594e-02 2.812122600410423001e-02 2.860984525024230091e-02 2.918229942871499241e-02 2.984752378017514751e-02 3.061326773097894013e-02 3.148540022790004972e-02 3.246715117703868198e-02 3.355834711028995304e-02 3.475471366324673489e-02 3.604732264918713430e-02 3.742225441748200238e-02 3.886052634117861948e-02 4.033830844645948377e-02 4.182741289982698507e-02 4.329601211660732279e-02 4.470951675821051990e-02 4.603153356017764680e-02 4.722482432210819980e-02 4.825219919853965950e-02 4.907729565255121440e-02 4.966521472596949899e-02 4.998300505044815656e-02 5.000000000000000278e-02
2.831118322091926917e-02 3.028855099206087184e-02 3.186068112132665886e-02 3.307840207555727552e-02 3.399431567745709454e-02 3.466111655907393868e-02 3.512965922646497235e-02 3.544692505573639879e-02 3.565409890678645360e-02 3.578499144072753990e-02 3.586502302548395804e-02 3.591091482721388978e-02 3.593112529626123208e-02 3.592695239096099086e-02 3.589412420179393520e-02 3.582464611962367373e-02 3.570866888840785319e-02 3.553618060595691713e-02 3.529838905916295871e-02 3.498872921478095310e-02 3.460348946053499325e-02 3.414209177548158114e-02 3.360708438761830091e-02 3.300391377572408497e-02 3.234054086025676261e-02 3.162695852636426830e-02 3.087465779044028594e-02 3.009608022439747010e-02 2.930408581457832895e-02 2.851145855443430049e-02 2.773046655190700149e-02 2.697248885139079747e-02 2.624771708747645343e-02 2.556493618250672145e-02 2.493138443591879846e-02 2.435268958456181243e-02 2.383287394152351982e-02 2.337441882148378822e-02 2.297837639668874610e-02 2.264451607809477365e-02 2.237149253014336994e-02 2.215702341463870323e-02 2.199806671226876495e-02 2.189098971026121054e-02 2.183172417248218852e-02 2.181590455227187461e-02 2.183898815740907551e-02 2.189635779663782339e-02 2.198340857128651057e-02 2.209562113284523066e-02 2.222862396550801325e-02 2.237824715818675231e-02 2.254056980129976601e-02 2.271196267526015555e-02 2.288912737397612654e-02 2.306913249537728694e-02 2.324944708199364746e-02 2.342797114179555676e-02 2.360306284342854333e-02 2.377356187119598202e-02 2.393880844691366125e-02 2.409865767555404922e-02 2.425348914089237029e-02 2.440421204952653716e-02 2.455226666803898145e-02 2.469962327297826193e-02 2.484878026864949935e-02 2.500276342899432000e-02 2.516512826580670492e-02 2.533996717317200942e-02 2.553192209597644757e-02 2.574620188248272906e-02 2.598860112134092348e-02 2.626551414190937683e-02 2.658393413227131546e-02 2.695142336270030595e-02 2.737603689608269011e-02 2.786617977136118460e-02 2.843037750562640853e-02 2.907694296998843131e-02 2.981353014844304733e-02 3.064657733329353984e-02 3.158065835866096654e-02 3.261777871673082058e-02 3.375667079077914606e-02 3.499215509881568181e-02 3.631463855494801440e-02 3.770981374787560347e-02 3.915860485744074304e-02 4.063737864766291119e-02 4.211840794129369236e-02 4.357054613041986407e-02 4.496005000498803916e-02 4.625147777845528552e-02 4.740859017616555482e-02 4.839519284990118075e-02 4.917587468399202411e-02 4.971661491110154069e-02 4.998524912515611707e-02 4.995179816630194308e-02
2.862491272973477496e-02 3.051277776108621970e-02 3.198877473240951258e-02 3.310548530535591810e-02 3.391773582331088221e-02 3.448088574504772075e-02 3.484880371379178721e-02 3.507168077248290494e-02 3.519390052785314332e-02 3.525222654615052520e-02 3.527455763729431953e-02 3.527943394086983930e-02 3.527636178829059860e-02 3.526689165739984450e-02 3.524626702100418923e-02 3.520539164747060051e-02 3.513285081538645299e-02 3.501676074034976160e-02 3.484629032723931402e-02 3.461277722418409225e-02 3.431042809989631043e-02 3.393664158438954026e-02 3.349201974154981942e-02 3.298014369899261028e-02 3.240718663574340686e-02 3.178142810373837251e-02 3.111272180058342191e-02 3.041195709062510799e-02 2.969054416181816231e-02 2.895994415119736501e-02 2.823125876158014136e-02 2.751488846281256034e-02 2.682026391563617496e-02 2.615565145118631252e-02 2.552803009994128111e-02 2.494303474917892310e-02 2.440495758489453007e-02 2.391679816373524017e-02 2.348035137882585610e-02 2.309632229305424653e-02 2.276445729567196097e-02 2.248368218833925181e-02 2.225223945089490132e-02 2.206781886137482510e-02 2.192767762985010568e-02 2.182874805728851966e-02 2.176773230122428654e-02 2.174118502890102708e-02 2.174558553204530148e-02 2.177740128089578411e-02 2.183314496038295596e-02 2.190942683259511359e-02 2.200300389009907792e-02 2.211082678580539307e-02 2.223008501903975254e-02 2.235825038289630459e-02 2.249311827847221001e-02 2.263284620687278786e-02 2.277598857781079622e-02 2.292152693301949956e-02 2.306889477559849466e-02 2.321799641924452220e-02 2.336921961445581619e-02 2.352344215421771703e-02 2.368203317898679577e-02 2.384685044212388541e-02 2.402023529188586706e-02 2.420500747832848853e-02 2.440446198101121553e-02 2.462236973492989631e-02 2.486298326159850150e-02 2.513104666335494453e-02 2.543180714008690460e-02 2.577102216548736793e-02 2.615495288883255831e-02 2.659033057554768473e-02 2.708427955628613451e-02 2.764417803001543994e-02 2.827743812971884874e-02 2.899118989382067080e-02 2.979186095726722716e-02 3.068465511574440877e-02 3.167294779379444675e-02 3.275763313559587608e-02 3.393647313044654418e-02 3.520351039775630048e-02 3.654860962193060003e-02 3.795718593467869995e-02 3.941016165971916729e-02 4.088416810990682521e-02 4.235198098629516794e-02 4.378315173293656493e-02 4.514477774951021483e-02 4.640234461986910558e-02 4.752057401120662883e-02 4.846421995689220025e-02 4.919877078892549022e-02 4.969103060612983097e-02 4.990956992132965231e-02 4.982504807016752135e-02
2.890328788151457287e-02 3.070067866817593680e-02 3.207907290091691066e-02 3.309275793178802910e-02 3.379877381281785886e-02 3.425518359131574098e-02 3.451896722984189314e-02 3.464368238728209731e-02 3.467711942542601317e-02 3.465923476055024488e-02 3.462065059327573691e-02 3.458194648928961806e-02 3.455384691822922794e-02 3.453825841474750941e-02 3.452997195721761725e-02 3.451875691634733595e-02 3.449154998649536091e-02 3.443448037330559819e-02 3.433454916765777548e-02 3.418086935558807549e-02 3.396545146425156148e-02 3.368357645060873762e-02 3.333382959767449555e-02 3.291788063745853393e-02 3.244009242446772856e-02 3.190702954116278467e-02 3.132692412245072916e-02 3.070914209417953747e-02 3.006368057919073938e-02 2.940071701768072823e-02 2.873022252859067094e-02 2.806164586204469916e-02 2.740366954400332358e-02 2.676403613272745549e-02 2.614943964112045535e-02 2.556547499230602677e-02 2.501663681886343721e-02 2.450635798793340814e-02 2.403707794049108823e-02 2.361033125288435411e-02 2.322684769720136447e-02 2.288665638198728730e-02 2.258918814763698560e-02 2.233337210533156703e-02 2.211772388264467495e-02 2.194042463422052336e-02 2.179939109034277622e-02 2.169233779114227226e-02 2.161683317393142678e-02 2.157035136724074972e-02 2.155032144728874499e-02 2.155417559822363216e-02 2.157939716135349323e-02 2.162356903419909715e-02 2.168442235318576716e-02 2.175988491791226026e-02 2.184812843058737963e-02 2.194761335883485542e-02 2.205713009988532342e-02 2.217583513656542701e-02 2.230328103095957637e-02 2.243943939478998395e-02 2.258471639462149641e-02 2.273996087432295435e-02 2.290646577336678813e-02 2.308596413629248473e-02 2.328062157220599226e-02 2.349302743435555119e-02 2.372618712520393330e-02 2.398351765181641615e-02 2.426884771849240410e-02 2.458642213111600708e-02 2.494090804198105527e-02 2.533739762659714331e-02 2.578139834193543534e-02 2.627879833964331946e-02 2.683579147475178769e-02 2.745874443065146608e-02 2.815398867234716884e-02 2.892752312895301159e-02 2.978462035050545922e-02 3.072933953074747510e-02 3.176396358794304764e-02 3.288839281779779716e-02 3.409954190113265171e-02 3.539079712163068631e-02 3.675159353407379814e-02 3.816716559023650146e-02 3.961850930618350530e-02 4.108257156136516791e-02 4.253265650983054091e-02 4.393901514010310067e-02 4.526956604982521754e-02 4.649068621347728081e-02 4.756801048638469032e-02 4.846718640044776066e-02 4.915454378513700595e-02 4.959765383090602303e-02 4.976576672942261553e-02 4.963012914093754835e-02
2.915755393270107187e-02 3.086424837738842644e-02 3.214435344309104353e-02 3.305379155361743565e-02 3.365177779703484168e-02 3.399908678792620126e-02 3.415587608179596751e-02 3.417919920160879255e-02 3.412043988921175525e-02 3.402297431673784178e-02 3.392038865694659705e-02 3.383552522168922078e-02 3.378050432410611287e-02 3.375770117465044101e-02 3.376149474386044846e-02 3.378049362750643742e-02 3.379990713050348011e-02 3.380376522726767641e-02 3.377677478083497553e-02 3.370569988296921726e-02 3.358024492971855429e-02 3.339348505144983104e-02 3.314192618437625942e-02 3.282529050233395224e-02 3.244611950527703098e-02 3.200927418837942046e-02 3.152139515633164274e-02 3.099036901701211072e-02 3.042483284051419878e-02 2.983373662054387976e-02 2.922597451231506369e-02 2.861008878371262484e-02 2.799404544332200276e-02 2.738507697332777727e-02 2.678958516303229370e-02 2.621309547664271711e-02 2.566025354643126227e-02 2.513485416149515220e-02 2.463989344750469254e-02 2.417763572665529784e-02 2.374968771638159143e-02 2.335707415779679150e-02 2.300031053374838874e-02 2.267947011191014453e-02 2.239424400987416811e-02 2.214399422708115961e-02 2.192780055218927424e-02 2.174450289702566791e-02 2.159274092561767888e-02 2.147099286429291626e-02 2.137761514467663090e-02 2.131088410884247539e-02 2.126904046504130702e-02 2.125033659301044445e-02 2.125308622308159229e-02 2.127571550592721392e-02 2.131681409013505904e-02 2.137518456062990554e-02 2.144988847868814150e-02 2.154028731090907797e-02 2.164607673938303070e-02 2.176731320106804757e-02 2.190443199642009772e-02 2.205825691139422229e-02 2.223000197540740686e-02 2.242126667490336456e-02 2.263402657946776350e-02 2.287062181198696795e-02 2.313374598050643716e-02 2.342643794750315020e-02 2.375207800508399511e-02 2.411438854318791528e-02 2.451743709539169758e-02 2.496563677841632037e-02 2.546373580409309195e-02 2.601678430875367307e-02 2.663006377668851801e-02 2.730896256406151884e-02 2.805878129185490275e-02 2.888445497399827477e-02 2.979018524958714983e-02 3.077898608109746678e-02 3.185215911619406620e-02 3.300872905608411706e-02 3.424488246422215804e-02 3.555346263944133417e-02 3.692357578386162159e-02 3.834035800122947979e-02 3.978493861280532617e-02 4.123461477473757547e-02 4.266322895839915613e-02 4.404171880654439430e-02 4.533879210577557162e-02 4.652167063212895443e-02 4.755684605133028708e-02 4.841079772829821187e-02 4.905063387526883284e-02 4.944463119854616145e-02 4.956266163804726177e-02 4.937650619657836526e-02
2.939736588840210704e-02 3.101390155813761595e-02 3.219583814454172327e-02 3.300064087825393261e-02 3.348963349896022512e-02 3.372627779809136278e-02 3.377394077997750155e-02 3.369326811335383864e-02 3.353939570383148577e-02 3.335932656626952597e-02 3.318984092717127549e-02 3.305626536562419199e-02 3.297229847641439809e-02 3.294090518189993211e-02 3.295610246826261025e-02 3.300532079743125763e-02 3.307197121517146954e-02 3.313787935076033253e-02 3.318533835628749429e-02 3.319864662475804223e-02 3.316510083083692995e-02 3.307549170513555264e-02 3.292419401224671444e-02 3.270895793430917547e-02 3.243050505829552649e-02 3.209201713505848569e-02 3.169858650601269090e-02 3.125667794141560873e-02 3.077363488916015632e-02 3.025724963609334808e-02 2.971540662782386211e-02 2.915580076436253415e-02 2.858572734704595969e-02 2.801193697941897418e-02 2.744054669114771167e-02 2.687699753098704569e-02 2.632604862232040474e-02 2.579179801795781352e-02 2.527772149541691882e-02 2.478672158581327750e-02 2.432118052161061361e-02 2.388301231434462532e-02 2.347371072718626439e-02 2.309439138783560622e-02 2.274582760486890121e-02 2.242848053300453004e-02 2.214252513022671107e-02 2.188787383833498690e-02 2.166420010030000939e-02 2.147096372869092273e-02 2.130743980497851880e-02 2.117275227925389733e-02 2.106591282090642878e-02 2.098586481121678810e-02 2.093153173217830731e-02 2.090186864677269496e-02 2.089591502744986284e-02 2.091284690231344501e-02 2.095202617121097108e-02 2.101304500479000970e-02 2.109576347783072292e-02 2.120033899483984505e-02 2.132724662337155686e-02 2.147729013042389001e-02 2.165160427679160143e-02 2.185164970199697174e-02 2.207920244445732774e-02 2.233634068011111987e-02 2.262543149922519731e-02 2.294912033571831766e-02 2.331032488253576007e-02 2.371223386911134115e-02 2.415830890691733970e-02 2.465228479352605043e-02 2.519816041057885286e-02 2.580016902915898205e-02 2.646271399445919437e-02 2.719025409811055838e-02 2.798712323951598260e-02 2.885727195881132578e-02 2.980392459287275683e-02 3.082915520285939986e-02 3.193339741279005439e-02 3.311491644782538907e-02 3.436928379214048562e-02 3.568890340521376631e-02 3.706264090929028976e-02 3.847560203388386557e-02 3.990909381520927474e-02 4.134078329223195986e-02 4.274504688919626705e-02 4.409348320819996003e-02 4.535554614583664490e-02 4.649924645539732504e-02 4.749186877519142452e-02 4.830065679050575544e-02 4.889342953332306840e-02 4.923910437234314819e-02 4.930811473980475923e-02 4.907272142990976027e-02
2.963066811854084270e-02 3.115833032340230291e-02 3.224302688437502562e-02 3.294365434371056972e-02 3.332355230933482099e-02 3.344881266323874308e-02 3.338600696570463711e-02 3.319943198569618587e-02 3.294810076049846381e-02 3.268282365155388003e-02 3.244378801376827243e-02 3.225901915930310532e-02 3.214397782364065981e-02 3.210234699744603237e-02 3.212784223724457489e-02 3.220671022348053220e-02 3.232050468563295309e-02 3.244875343947537655e-02 3.257122810560007103e-02 3.266965654096490312e-02 3.272883855494612693e-02 3.273721482024179869e-02 3.268699031846773045e-02 3.257393205539483444e-02 3.239695614494290249e-02 3.215760193263263872e-02 3.185946858012878025e-02 3.150766756124648987e-02 3.110832547390516428e-02 3.066815640655140215e-02 3.019411178054446504e-02 2.969310762155222272e-02 2.917182394319960473e-02 2.863656772569111997e-02 2.809318930566742645e-02 2.754704143851624543e-02 2.700297053148933632e-02 2.646533033894637663e-02 2.593800958377175461e-02 2.542446638559974284e-02 2.492776392595850640e-02 2.445060336683978902e-02 2.399535157662354215e-02 2.356406262888408390e-02 2.315849325916388701e-02 2.278011343968083802e-02 2.243011392619165267e-02 2.210941302810011042e-02 2.181866495595240207e-02 2.155827193319103177e-02 2.132840186262057597e-02 2.112901276756691538e-02 2.095988454717313820e-02 2.082065786196191093e-02 2.071087926476294569e-02 2.063005107147692502e-02 2.057768397368413271e-02 2.055335006639716355e-02 2.055673382235584726e-02 2.058767860039058956e-02 2.064622652996950247e-02 2.073265005738561539e-02 2.084747405084058300e-02 2.099148810919471836e-02 2.116574955399419880e-02 2.137157843873553620e-02 2.161054669289257796e-02 2.188446411772480144e-02 2.219536423415943704e-02 2.254549280968672770e-02 2.293730113091305839e-02 2.337344464705480573e-02 2.385678546157893667e-02 2.439039437229087448e-02 2.497754496824072107e-02 2.562168905691423332e-02 2.632639995040678138e-02 2.709526855103665255e-02 2.793173747484849201e-02 2.883886130779421408e-02 2.981898694705361827e-02 3.087335684908950120e-02 3.200164927264792514e-02 3.320148192442868434e-02 3.446791677553880801e-02 3.579301183470089825e-02 3.716546810853198907e-02 3.857041541425951237e-02 3.998936905224251270e-02 4.140037210052691097e-02 4.277831812345275764e-02 4.409542992880390033e-02 4.532185496484083392e-02 4.642632926297512314e-02 4.737686023399454577e-02 4.814138336042111943e-02 4.868835708261590178e-02 4.898727170089092753e-02 4.900905980061145972e-02 4.872640597067587342e-02
2.986363514360187640e-02 3.130442315688106852e-02 3.229359276542457385e-02 3.289134432822004434e-02 3.316291657250078351e-02 3.317694270275752672e-02 3.300315626161211963e-02 3.270952363193310036e-02 3.235902105632546683e-02 3.200641382476340085e-02 3.169548594137618774e-02 3.145716322824633482e-02 3.130885000819278591e-02 3.125508143945242290e-02 3.128934340500719863e-02 3.139670741881825378e-02 3.155682652065372462e-02 3.174685347309710859e-02 3.194394694827416142e-02 3.212717584613571792e-02 3.227877023992690303e-02 3.238477098810055993e-02 3.243518991743434693e-02 3.242381394237383446e-02 3.234778117091893085e-02 3.220703697008399369e-02 3.200375246155936354e-02 3.174176291844831022e-02 3.142606207180248523e-02 3.106237146598975901e-02 3.065679164013557917e-02 3.021553343948844839e-02 2.974472238995846951e-02 2.925026604314907158e-02 2.873777287058185137e-02 2.821251113992126469e-02 2.767939685294800237e-02 2.714300097900716746e-02 2.660756767321795224e-02 2.607703677843618145e-02 2.555506556580006833e-02 2.504504628802139629e-02 2.455011763574386011e-02 2.407316954430492595e-02 2.361684194891765232e-02 2.318351899268288399e-02 2.277532082712685479e-02 2.239409549581719561e-02 2.204141346028991311e-02 2.171856713291601265e-02 2.142657735861804025e-02 2.116620818592225908e-02 2.093799054777584212e-02 2.074225469984034009e-02 2.057917050518794089e-02 2.044879397160718690e-02 2.035111789453983647e-02 2.028612407696931547e-02 2.025383441637841966e-02 2.025435818404943203e-02 2.028793307660495607e-02 2.035495808444399979e-02 2.045601687435303837e-02 2.059189118723712963e-02 2.076356465248890490e-02 2.097221834344610222e-02 2.121922024650581273e-02 2.150611147051066999e-02 2.183459234687298509e-02 2.220651142326051861e-02 2.262385960709399971e-02 2.308877028216959129e-02 2.360352408624643780e-02 2.417055428723291141e-02 2.479244555121032367e-02 2.547191572805009366e-02 2.621176760989979079e-02 2.701479608287933945e-02 2.788363638078839718e-02 2.882054188405372419e-02 2.982708548625519207e-02 3.090378696412272169e-02 3.204967944484209824e-02 3.326183970498865911e-02 3.453491778693400238e-02 3.586070907195704205e-02 3.722781443402400914e-02 3.862143006634816828e-02 4.002329790798780929e-02 4.141183164024713620e-02 4.276241457219048803e-02 4.404784764561359145e-02 4.523891134672768100e-02 4.630499666893556077e-02 4.721475821253200839e-02 4.793674644018429409e-02 4.843998442765654056e-02 4.869446509727787253e-02 4.867155591834278205e-02 4.834430787995556977e-02
3.010067724532814598e-02 3.145725067559469040e-02 3.235334545427422798e-02 3.285032610038688544e-02 3.301519315485033218e-02 3.291900301351404629e-02 3.263457152049629995e-02 3.223351113249043470e-02 3.178280465986143416e-02 3.134128147682457843e-02 3.095648198920467054e-02 3.066241587269669805e-02 3.047860584299593931e-02 3.041057699312858104e-02 3.045166869850087984e-02 3.058580236748264028e-02 3.079070624127907760e-02 3.104110133152522544e-02 3.131146277708513059e-02 3.157813256772117744e-02 3.182071777500770221e-02 3.202282800261289225e-02 3.217227520508479655e-02 3.226088398377267158e-02 3.228405443441494799e-02 3.224019663935836361e-02 3.213012685867679824e-02 3.195648723081127157e-02 3.172322679202880386e-02 3.143516300558695659e-02 3.109762958805194558e-02 3.071620746295243912e-02 3.029653021636156268e-02 2.984415257439252539e-02 2.936446940474909950e-02 2.886267295938398439e-02 2.834373706963235970e-02 2.781241845285674710e-02 2.727326696473110837e-02 2.673063838178647150e-02 2.618870502387475943e-02 2.565146115782132585e-02 2.512272161331556911e-02 2.460611335247157860e-02 2.410506083418563136e-02 2.362276687708994571e-02 2.316219133023286747e-02 2.272603019672186225e-02 2.231669792184716450e-02 2.193631536677034463e-02 2.158670556976931276e-02 2.126939879190483176e-02 2.098564760782750671e-02 2.073645199888207030e-02 2.052259360198426669e-02 2.034467752967061838e-02 2.020317956349871116e-02 2.009849608350760403e-02 2.003099386671645943e-02 2.000105688941968690e-02 2.000912750845468269e-02 2.005573986791199179e-02 2.014154405664476954e-02 2.026732038810737449e-02 2.043398412793507452e-02 2.064258197501827458e-02 2.089428250448257043e-02 2.119036348055976932e-02 2.153219930358794484e-02 2.192125172594685742e-02 2.235906623181839123e-02 2.284727504407132667e-02 2.338760559087850466e-02 2.398189053166265364e-02 2.463207233302241311e-02 2.534019227030873816e-02 2.610835111776040052e-02 2.693862729375820497e-02 2.783293850018697321e-02 2.879283551810883982e-02 2.981922216032322978e-02 3.091200341204637658e-02 3.206967394890832684e-02 3.328887031795461915e-02 3.456392034901667465e-02 3.588643076306705787e-02 3.724495651599295937e-02 3.862479187497715877e-02 4.000791341658137268e-02 4.137309025706644577e-02 4.269615925749378760e-02 4.395044571266226718e-02 4.510729604591312558e-02 4.613668038029149904e-02 4.700782037603769975e-02 4.768980096091245818e-02 4.815213210364947816e-02 4.836523668957549288e-02 4.830085097957957652e-02 4.793233359101100460e-02
3.034450986171349784e-02 3.162011869887929733e-02 3.242626495736142950e-02 3.282532968639471915e-02 3.288592153235776749e-02 3.268137605903394943e-02 3.228747667712249941e-02 3.177941633877556099e-02 3.122818278818509027e-02 3.069673590280211015e-02 3.023649695974458054e-02 2.988471883924808878e-02 2.966320635700575234e-02 2.957861342352360520e-02 2.962422711593019897e-02 2.978286184517682511e-02 3.003031922452597050e-02 3.033885610119258641e-02 3.068021814957057683e-02 3.102797635478707350e-02 3.135908375263861403e-02 3.165470726012906827e-02 3.190046962077680570e-02 3.208626540717932074e-02 3.220580823864357262e-02 3.225604023328896425e-02 3.223650185769925264e-02 3.214872863490725319e-02 3.199571450594514838e-02 3.178146122196456175e-02 3.151061869256408660e-02 3.118821178545678335e-02 3.081944353937666331e-02 3.040956206181305577e-02 2.996377765161728490e-02 2.948721722300920445e-02 2.898490440118102474e-02 2.846175535122956457e-02 2.792258225139319927e-02 2.737209817639155857e-02 2.681491892563517970e-02 2.625555896117781618e-02 2.569842008014076168e-02 2.514777271476844808e-02 2.460773081267694437e-02 2.408222208362621741e-02 2.357495599209925505e-02 2.308939221583773682e-02 2.262871237537905644e-02 2.219579767555650632e-02 2.179321470737395627e-02 2.142321107277417661e-02 2.108772176452182803e-02 2.078838641871930473e-02 2.052657672511980919e-02 2.030343249865342384e-02 2.011990424880731598e-02 1.997679958738723255e-02 1.987483053303796057e-02 1.981465873118231844e-02 1.979693582291635473e-02 1.982233666082339196e-02 1.989158376036347098e-02 2.000546224954405719e-02 2.016482557257550517e-02 2.037059322765105707e-02 2.062374276400154305e-02 2.092529899760451131e-02 2.127632378410542618e-02 2.167790956820400683e-02 2.213117918860872321e-02 2.263729298125070552e-02 2.319746209131937076e-02 2.381296418159046385e-02 2.448515464183035131e-02 2.521546333026811887e-02 2.600536431089661357e-02 2.685630458293178022e-02 2.776957805392214068e-02 2.874613353516169978e-02 2.978631067565280788e-02 3.088950546925991678e-02 3.205377672860022786e-02 3.327541559288444556e-02 3.454851006926811657e-02 3.586454384321512839e-02 3.721207128339053954e-02 3.857650746658544683e-02 3.994006296483847834e-02 4.128183914337683197e-02 4.257808301616645974e-02 4.380258413589558503e-02 4.492718233607139594e-02 4.592234643876624833e-02 4.675778117696922226e-02 4.740302221909956787e-02 4.782798603891558892e-02 4.800345067261722193e-02 4.790145336025817407e-02 4.749560023731105168e-02
3.059628113451957204e-02 3.179468413633902008e-02 3.251460277608492905e-02 3.281928329692734153e-02 3.277877695316482737e-02 3.246853293395352003e-02 3.196715580414541402e-02 3.135331302238921619e-02 3.070195002129729941e-02 3.008017800983791082e-02 2.954338382640521454e-02 2.913219382759254031e-02 2.887084304184431988e-02 2.876725122174832519e-02 2.881475738306885775e-02 2.899513093907471126e-02 2.928226953962790452e-02 2.964596065828773580e-02 3.005520220896197581e-02 3.048077647983617536e-02 3.089697546332415001e-02 3.128253288210528643e-02 3.162091035208079021e-02 3.190011847760946401e-02 3.211224612242882109e-02 3.225284156496856930e-02 3.232025230351131401e-02 3.231499491010043912e-02 3.223919688145094470e-02 3.209613016468151891e-02 3.188984052463245122e-02 3.162486701935925820e-02 3.130604024109678168e-02 3.093834544484015681e-02 3.052683621977970302e-02 3.007658518539575720e-02 2.959265975064936938e-02 2.908011287404325268e-02 2.854398075429762094e-02 2.798928131644119743e-02 2.742100915525633870e-02 2.684412421872174950e-02 2.626353294262986568e-02 2.568406177734863793e-02 2.511042407319647590e-02 2.454718210401552608e-02 2.399870659860519825e-02 2.346913650598208764e-02 2.296234183605889989e-02 2.248189229351460483e-02 2.203103407248694842e-02 2.161267663065440103e-02 2.122939055546340520e-02 2.088341682799191301e-02 2.057668694607843116e-02 2.031085255730304823e-02 2.008732254251290039e-02 1.990730494355595626e-02 1.977185079509539978e-02 1.968189683520820202e-02 1.963830425078598799e-02 1.964189106010361119e-02 1.969345642404619900e-02 1.979379606484344203e-02 1.994370898840469239e-02 2.014399676043117718e-02 2.039545756044050528e-02 2.069887799480507606e-02 2.105502604191374083e-02 2.146464838521067522e-02 2.192847464306543759e-02 2.244722955800887432e-02 2.302165206947678552e-02 2.365251747550855058e-02 2.434065582529052266e-02 2.508695664294914932e-02 2.589234755191786169e-02 2.675773292411512058e-02 2.768387891782283713e-02 2.867123371656045763e-02 2.971967675814990092e-02 3.082819821678764449e-02 3.199451945438230166e-02 3.321467551798065049e-02 3.448259044957737579e-02 3.578968332432543031e-02 3.712454576283513025e-02 3.847272895271298954e-02 3.981666973014143240e-02 4.113577198333254192e-02 4.240664360464709709e-02 4.360347313545678838e-02 4.469851679884684348e-02 4.566265781807685858e-02 4.646599670517100739e-02 4.707843333653277673e-02 4.747020794103059410e-02 4.761237693706495827e-02 4.747720914737237757e-02 4.703849687419810188e-02
3.085574804222407375e-02 3.198112477485329924e-02 3.261904245375143313e-02 3.283346156134508281e-02 3.269570344018673386e-02 3.228314880481943788e-02 3.167704971920302232e-02 3.095940483160168968e-02 3.020902545001765208e-02 2.949714808741258493e-02 2.888316680297693673e-02 2.841117825651945025e-02 2.810797586406121873e-02 2.798287707934771218e-02 2.802938543054658838e-02 2.822830619566055188e-02 2.855168146745747093e-02 2.896685326489972442e-02 2.944008307730980323e-02 2.993937480901512002e-02 3.043637736323329818e-02 3.090742185832848904e-02 3.133385374156246600e-02 3.170185834336100572e-02 3.200197010073459886e-02 3.222842253365330867e-02 3.237845478295375834e-02 3.245165130058887820e-02 3.244935893740517191e-02 3.237420150211992032e-02 3.222969528086735286e-02 3.201995863625143462e-02 3.174950311745321913e-02 3.142309112286158918e-02 3.104564493546390150e-02 3.062219304271856721e-02 3.015784144486565246e-02 2.965775973714211700e-02 2.912717386503574021e-02 2.857135945207741126e-02 2.799563141630547272e-02 2.740532719954984209e-02 2.680578233152400291e-02 2.620229824484017825e-02 2.560010325264827288e-02 2.500430839724692919e-02 2.441986046937622001e-02 2.385149487409294819e-02 2.330369117090766440e-02 2.278063403947547597e-02 2.228618212393997100e-02 2.182384670894484124e-02 2.139678151347373242e-02 2.100778410484865563e-02 2.065930859614088788e-02 2.035348846507170628e-02 2.009216759207795022e-02 1.987693702618077013e-02 1.970917460631365845e-02 1.959008443489606774e-02 1.952073334345479083e-02 1.950208190975313838e-02 1.953500826183350580e-02 1.962032379142786970e-02 1.975878092608991665e-02 1.995107417853366275e-02 2.019783668082493142e-02 2.049963517859769782e-02 2.085696685517696158e-02 2.127026123221932227e-02 2.173988963424344778e-02 2.226618324370156776e-02 2.284945862480784740e-02 2.349004687564045304e-02 2.418831951766670096e-02 2.494470121505176427e-02 2.575965691321263282e-02 2.663363955824003815e-02 2.756698478600567298e-02 2.855974135727314470e-02 2.961143097044839634e-02 3.072073837661652013e-02 3.188514195690974468e-02 3.310050507068620224e-02 3.436065802604597319e-02 3.565700765583416226e-02 3.697821446774866155e-02 3.830997496474689012e-02 3.963493872736816720e-02 4.093277709595527503e-02 4.218040473591506967e-02 4.335233960823513949e-02 4.442117351716385470e-02 4.535811647709979411e-02 4.613357460964362389e-02 4.671772299405033135e-02 4.708104077064067389e-02 4.719478423844866710e-02 4.703138301901147594e-02 4.656475317080266407e-02
3.112148870533323897e-02 3.217835065070669132e-02 3.273890754369296330e-02 3.286768723000886572e-02 3.263710623185841347e-02 3.212628334486639092e-02 3.141892239058167308e-02 3.060017682567837960e-02 2.975259000058112085e-02 2.895145116136552815e-02 2.826015832410014306e-02 2.772633836490277087e-02 2.737944730257770021e-02 2.723032345179919600e-02 2.727275342286674883e-02 2.748667713677579658e-02 2.784235547742884564e-02 2.830473890547819532e-02 2.883739441906333495e-02 2.940558652537597281e-02 2.997836409149973180e-02 3.052970686231725253e-02 3.103890496235853919e-02 3.149038838852901562e-02 3.187321445866787145e-02 3.218038425169954947e-02 3.240811326025890005e-02 3.255513824927022681e-02 3.262210698109582058e-02 3.261107135436116383e-02 3.252508683371301001e-02 3.236791020454626161e-02 3.214378191706323412e-02 3.185727702852958476e-02 3.151320876034139490e-02 3.111657002258317456e-02 3.067250026594366477e-02 3.018626726646390923e-02 2.966325567033876315e-02 2.910895618319024603e-02 2.852895112067446726e-02 2.792889363261346139e-02 2.731447928225163094e-02 2.669140982378259697e-02 2.606534998974421521e-02 2.544187888191583660e-02 2.482643815287196437e-02 2.422427956179441094e-02 2.364041467677965511e-02 2.307956946897768077e-02 2.254614630196820693e-02 2.204419537584162078e-02 2.157739706769200294e-02 2.114905586248479186e-02 2.076210574819355517e-02 2.041912612426816098e-02 2.012236651485987959e-02 1.987377775788539205e-02 1.967504691988271326e-02 1.952763301278118147e-02 1.943280069168795351e-02 1.939164949984991185e-02 1.940513688028257938e-02 1.947409404829112886e-02 1.959923484213827935e-02 1.978115873937344102e-02 2.002035021741428722e-02 2.031717740328664590e-02 2.067189334519567087e-02 2.108464310214697504e-02 2.155547907106757782e-02 2.208438549226008144e-02 2.267131091239210292e-02 2.331620466160312655e-02 2.401905035852923420e-02 2.477988645760256792e-02 2.559880137053092281e-02 2.647588927841461326e-02 2.741115296882399438e-02 2.840434237618995675e-02 2.945472227528742049e-02 3.056076975123569670e-02 3.171981116957278690e-02 3.292761840119850375e-02 3.417799354365574221e-02 3.546237855668921135e-02 3.676952938519330999e-02 3.808529205877931451e-02 3.939251061895174266e-02 4.067108434569553094e-02 4.189817650263911314e-02 4.304856122185388850e-02 4.409508178908071868e-02 4.500918448705371749e-02 4.576148833372932490e-02 4.632235242544453790e-02 4.666240814993823094e-02 4.675303172218755327e-02 4.656674166577420837e-02 4.607751460809569877e-02
3.139113694133137400e-02 3.238424266668007978e-02 3.287240241265697305e-02 3.292057174696425698e-02 3.260208933260927422e-02 3.199761240173128185e-02 3.119308421810143561e-02 3.027660869474965363e-02 2.933428915078069646e-02 2.844535019478164339e-02 2.767714506542475958e-02 2.708085137128503697e-02 2.668866441949994950e-02 2.651305420135185650e-02 2.654821205493440583e-02 2.677332740143195319e-02 2.715697936603450255e-02 2.766181051470093660e-02 2.824876586794599839e-02 2.888043802067195853e-02 2.952334342755805197e-02 3.014918140831135407e-02 3.073526224552682387e-02 3.126434033203935592e-02 3.172407862867619721e-02 3.210632985959259444e-02 3.240636936058987477e-02 3.262216713837452070e-02 3.275374831005727766e-02 3.280266300743102381e-02 3.277156806646038673e-02 3.266391150342026067e-02 3.248370492159918799e-02 3.223536686075940266e-02 3.192362032312334036e-02 3.155342927334903874e-02 3.112996111610360703e-02 3.065856455165791999e-02 3.014475453112278741e-02 2.959419814277760089e-02 2.901269710876716590e-02 2.840616415626930416e-02 2.778059187162045321e-02 2.714201377818854788e-02 2.649645832237697285e-02 2.584989722024677236e-02 2.520819021198505983e-02 2.457702868607532232e-02 2.396188085815739374e-02 2.336794121057843288e-02 2.280008671324429761e-02 2.226284196154633063e-02 2.176035480454168239e-02 2.129638333399095848e-02 2.087429431527511661e-02 2.049707232951704025e-02 2.016733813411985057e-02 1.988737410858534491e-02 1.965915419978576592e-02 1.948437556900370002e-02 1.936448920680042957e-02 1.930072713287663347e-02 1.929412442175568870e-02 1.934553514756095355e-02 1.945564234846953663e-02 1.962496317023450232e-02 1.985385132897989763e-02 2.014249978777191488e-02 2.049094691352813455e-02 2.089908922472688557e-02 2.136670304166612619e-02 2.189347585139469338e-02 2.247904602165651591e-02 2.312304676761077482e-02 2.382514723389253172e-02 2.458508056452536616e-02 2.540264636278209004e-02 2.627767353447460486e-02 2.720992971909012154e-02 2.819896583023330516e-02 2.924388895064979413e-02 3.034306394048796526e-02 3.149375316217648685e-02 3.269171373084269611e-02 3.393078121629070076e-02 3.520247600468476984e-02 3.649567186670307078e-02 3.779636443623955039e-02 3.908756992260539048e-02 4.034937221863693635e-02 4.155912144317624318e-02 4.269177136473181061e-02 4.372032967446930207e-02 4.461638575787776895e-02 4.535067652871936639e-02 4.589365200144780721e-02 4.621600762087854641e-02 4.628915841750209231e-02 4.608563916728933285e-02 4.557942348922643799e-02
3.166162500820784986e-02 3.259590355914057658e-02 3.301687023392279458e-02 3.298977844867367198e-02 3.258872154820204731e-02 3.189569416013721126e-02 3.099865562119370754e-02 2.998843352038955273e-02 2.895448549392330706e-02 2.797981226469133109e-02 2.713562876496565870e-02 2.647664295606762253e-02 2.603783555117995807e-02 2.583340304544120072e-02 2.585806283407679138e-02 2.609038213940503836e-02 2.649738108634423078e-02 2.703950660713859422e-02 2.767518396262663716e-02 2.836442895299536027e-02 2.907131679830478668e-02 2.976535585577923596e-02 3.042196534728719079e-02 3.102231221401766798e-02 3.155275198579701734e-02 3.200407376155497280e-02 3.237069409414854854e-02 3.264989301141241196e-02 3.284114392120015408e-02 3.294555907751841456e-02 3.296545242301248541e-02 3.290400982569770955e-02 3.276505077580812997e-02 3.255286358927269447e-02 3.227209658528631259e-02 3.192768948184131900e-02 3.152483164513460862e-02 3.106893636717638144e-02 3.056562276106830622e-02 3.002069902428912418e-02 2.944014268505562582e-02 2.883007502460555038e-02 2.819672819171654965e-02 2.754640463241286516e-02 2.688542937870088897e-02 2.622009649456729860e-02 2.555661157168150066e-02 2.490103259671201316e-02 2.425921176564953957e-02 2.363674088551685412e-02 2.303890287234745121e-02 2.247063152820372861e-02 2.193648127510033907e-02 2.144060787195041506e-02 2.098676039003080640e-02 2.057828393441370196e-02 2.021813184362747373e-02 1.990888545041070989e-02 1.965277901137414684e-02 1.945172716985070493e-02 1.930735234350165058e-02 1.922100974234144249e-02 1.919380831214907018e-02 1.922662672067859332e-02 1.932012448588987449e-02 1.947474938202967826e-02 1.969074321936773592e-02 1.996814882625003174e-02 2.030682141089552514e-02 2.070644729908071441e-02 2.116657221941184441e-02 2.168663978437550960e-02 2.226603861827594968e-02 2.290415383996160029e-02 2.360041556160566087e-02 2.435433407490992727e-02 2.516550892791999047e-02 2.603359768694204698e-02 2.695823038319290071e-02 2.793885794920373394e-02 2.897452766135604277e-02 3.006358571601135121e-02 3.120331613472628399e-02 3.238953526444768305e-02 3.361617077240876966e-02 3.487486148432386579e-02 3.615461795148857543e-02 3.744158198545079197e-02 3.871891616775452460e-02 3.996684224607227609e-02 4.116283215964549463e-02 4.228193969441470385e-02 4.329724706082723612e-02 4.418039110828655969e-02 4.490212956299829972e-02 4.543290860603022702e-02 4.574339834876154504e-02 4.580497079129875609e-02 4.559010400444794137e-02 4.507270511688406950e-02
3.192942155139674026e-02 3.280990712267788795e-02 3.316905296551232729e-02 3.307229213110830096e-02 3.259431382706307750e-02 3.181825190098558354e-02 3.083385256779671083e-02 2.973442351018429006e-02 2.861254262385539912e-02 2.755478940361220930e-02 2.663610384305976214e-02 2.591466238790101143e-02 2.542824423184369964e-02 2.519284766833136679e-02 2.520383342819178252e-02 2.543928498553098272e-02 2.586480693013903931e-02 2.643878944620983371e-02 2.711726839621381169e-02 2.785780416709873406e-02 2.862214416166535338e-02 2.937771245059893344e-02 3.009813801949785123e-02 3.076309578555787641e-02 3.135772396834052983e-02 3.187183267725892527e-02 3.229905846210395087e-02 3.263606378764605243e-02 3.288183580732305378e-02 3.303710675665492286e-02 3.310389733027956777e-02 3.308517212900183996e-02 3.298459020894613930e-02 3.280633184543175346e-02 3.255498322993460175e-02 3.223546279353028260e-02 3.185297541665212812e-02 3.141298345720718727e-02 3.092118603438205604e-02 3.038350021718210295e-02 2.980603965087936374e-02 2.919508772933912533e-02 2.855706372818282712e-02 2.789848139845667319e-02 2.722590042087552620e-02 2.654587186158672424e-02 2.586487936213551983e-02 2.518927823683416237e-02 2.452523492956821746e-02 2.387866938571768516e-02 2.325520281267023232e-02 2.266011303213443309e-02 2.209829917988018894e-02 2.157425691019244571e-02 2.109206455618002629e-02 2.065537994065345939e-02 2.026744679355824141e-02 1.993110908343123655e-02 1.964883108200851658e-02 1.942272071296803279e-02 1.925455373081795193e-02 1.914579655389262933e-02 1.909762612788674929e-02 1.911094598342451267e-02 1.918639859996488714e-02 1.932437519414482649e-02 1.952502498115212329e-02 1.978826666139003529e-02 2.011380520393930491e-02 2.050115678731334601e-02 2.094968390457679561e-02 2.145864108965889194e-02 2.202722950163338300e-02 2.265465584217308051e-02 2.334018802078273794e-02 2.408319698163738365e-02 2.488317162818394837e-02 2.573969236413353387e-02 2.665234896837691617e-02 2.762059082925441209e-02 2.864350229702432304e-02 2.971950308010844199e-02 3.084598278143966393e-02 3.201888889845756064e-02 3.323229744918312217e-02 3.447800306582469998e-02 3.574516914972064585e-02 3.702007718582175227e-02 3.828600712601815115e-02 3.952326856215213069e-02 4.070938701976383606e-02 4.181943364856684914e-02 4.282647253557839845e-02 4.370208998122741134e-02 4.441696553397370822e-02 4.494144540725691916e-02 4.524608415476105705e-02 4.530212860870121150e-02 4.508192739297485485e-02 4.455925833111094164e-02
3.219075376411824341e-02 3.302253347784469412e-02 3.332533979514243350e-02 3.316468013496710887e-02 3.261569176525503516e-02 3.176245603871552525e-02 3.069627573864977532e-02 2.951268365379243475e-02 2.830712079987585117e-02 2.716951431610317366e-02 2.617835197758258681e-02 2.539517554051799741e-02 2.486054078946396684e-02 2.459230021836802949e-02 2.458656718512359368e-02 2.482108623061062697e-02 2.526020735146797258e-02 2.586042690545659051e-02 2.657554780538833386e-02 2.736082098594147180e-02 2.817580025311912373e-02 2.898594803440251652e-02 2.976321488872461091e-02 3.048588556717912734e-02 3.113797369227010170e-02 3.170839458478863504e-02 3.219008089804246964e-02 3.257914574957040260e-02 3.287415038261722738e-02 3.307549937235728515e-02 3.318496435012398965e-02 3.320532446054192538e-02 3.314010560080875994e-02 3.299339865778421615e-02 3.276973773357725467e-02 3.247402150979138841e-02 3.211146363035388696e-02 3.168756078176453855e-02 3.120806974193473735e-02 3.067898693165370394e-02 3.010652590905402853e-02 2.949708982345150207e-02 2.885723713992810122e-02 2.819364001261454034e-02 2.751303556688201174e-02 2.682217107839884526e-02 2.612774462452808338e-02 2.543634323139462583e-02 2.475438083891741414e-02 2.408803854244988621e-02 2.344320953099865781e-02 2.282545092294239672e-02 2.223994430729973187e-02 2.169146625364504893e-02 2.118436939491022408e-02 2.072257396792501552e-02 2.030956898169189798e-02 1.994842154421287705e-02 1.964179238544220066e-02 1.939195532838781239e-02 1.920081842824487850e-02 1.906994474363846864e-02 1.900057121918556635e-02 1.899362490713225882e-02 1.904973666645392791e-02 1.916925344647709209e-02 1.935225115654886502e-02 1.959855079184751048e-02 1.990774077038195283e-02 2.027920819193370500e-02 2.071218084448066266e-02 2.120578020365504815e-02 2.175908342327960432e-02 2.237118952798698365e-02 2.304128193394978236e-02 2.376867639885073269e-02 2.455284100102811395e-02 2.539337331043486912e-02 2.628992010451880468e-02 2.724202730564300942e-02 2.824891260659362011e-02 2.930916053224337861e-02 3.042034904085141531e-02 3.157862724820417050e-02 3.277827399443599549e-02 3.401127494995673239e-02 3.526695994402442164e-02 3.653174081056018152e-02 3.778898278789177834e-02 3.901903006520673900e-02 4.019939027229817857e-02 4.130506617247550749e-02 4.230900830691189385e-02 4.318265209917198505e-02 4.389649819321433943e-02 4.442069561143108941e-02 4.472559270460919195e-02 4.478222922306836912e-02 4.456275241008903626e-02 4.404074927693535368e-02
3.244180532335960015e-02 3.322998074541767821e-02 3.348199308456213663e-02 3.326333255364655184e-02 3.264944940900759568e-02 3.172519012907795005e-02 3.058318668618398295e-02 2.932093550970059706e-02 2.803646568720733617e-02 2.682279161256580571e-02 2.576173387856948299e-02 2.491805588010116354e-02 2.433503174183084330e-02 2.403239456708813893e-02 2.400710764994388666e-02 2.423672367777895964e-02 2.468451280323774588e-02 2.530526149745895501e-02 2.605071988670232264e-02 2.687399815570687411e-02 2.773261011733762701e-02 2.859019408467156076e-02 2.941714420004885866e-02 3.019046283310957909e-02 3.089313408451874188e-02 3.151326228291926462e-02 3.204314988761822192e-02 3.247842515939208113e-02 3.281727930151629585e-02 3.305983683374943277e-02 3.320765985297566975e-02 3.326337359551698875e-02 3.323039442864477583e-02 3.311273963516573465e-02 3.291489928226111472e-02 3.264175279459091000e-02 3.229851573332343656e-02 3.189070520116489560e-02 3.142411496970451412e-02 3.090479373963886042e-02 3.033902187561836328e-02 2.973328353866336315e-02 2.909423242642834168e-02 2.842865038381978821e-02 2.774339901304746780e-02 2.704536512747992075e-02 2.634140147561696635e-02 2.563826461332456910e-02 2.494255211657329940e-02 2.426064148990071667e-02 2.359863312432992910e-02 2.296229948492340203e-02 2.235704236572981507e-02 2.178785955623048151e-02 2.125932165227807646e-02 2.077555906522620191e-02 2.034025859723008825e-02 1.995666832763410767e-02 1.962760906456195373e-02 1.935549031976890530e-02 1.914232871105278622e-02 1.898976691047307708e-02 1.889909173559929309e-02 1.887125068994607510e-02 1.890686712830190810e-02 1.900625515015152978e-02 1.916943617844777195e-02 1.939615981040286596e-02 1.968593177432199220e-02 2.003805154630684468e-02 2.045166126117334282e-02 2.092580593884427534e-02 2.145950276704224752e-02 2.205181435984469515e-02 2.270191778975426400e-02 2.340915812617471586e-02 2.417307267179934216e-02 2.499337061798668352e-02 2.586985301814249266e-02 2.680226032947950060e-02 2.779003965502073806e-02 2.883203127561057011e-02 2.992608368815899075e-02 3.106861720030951873e-02 3.225416666544813488e-02 3.347494228915613712e-02 3.472045168211548849e-02 3.597722500556421038e-02 3.722867761015004329e-02 3.845513169545325405e-02 3.963400211732643480e-02 4.074013427203786175e-02 4.174626688837572430e-02 4.262358191845785904e-02 4.334229882499351233e-02 4.387227145768304859e-02 4.418355136216289836e-02 4.424689008858861961e-02 4.403416302231188961e-02 4.351870685301795216e-02
3.267888441233660762e-02 3.342854637566004122e-02 3.363534383996954341e-02 3.336467222670632532e-02 3.269217354863265812e-02 3.170328852556424104e-02 3.049175717926633222e-02 2.915677593761896447e-02 2.779867379719636739e-02 2.651326723435762020e-02 2.538546025695181604e-02 2.448305501841717413e-02 2.385194846659388634e-02 2.351375195675026869e-02 2.346636013119332911e-02 2.368727892730389945e-02 2.413888327755367436e-02 2.477445144153421486e-02 2.554388208850133513e-02 2.639833422074783220e-02 2.729345332772686872e-02 2.819120515945088001e-02 2.906055916502419886e-02 2.987734887739167122e-02 3.062362642456857922e-02 3.128676888806155437e-02 3.185852038667565111e-02 3.233408580437642510e-02 3.271133852912188472e-02 3.299016677037425183e-02 3.317195887289511175e-02 3.325921432751920148e-02 3.325526075839534135e-02 3.316405545433043917e-02 3.299005107246805873e-02 3.273810762421036635e-02 3.241343587440186774e-02 3.202156031483094356e-02 3.156829262956661192e-02 3.105970893501469252e-02 3.050212603576452075e-02 2.990207352728276383e-02 2.926625986021001019e-02 2.860153152251404193e-02 2.791482534920228242e-02 2.721311467309740079e-02 2.650335060563193193e-02 2.579240018959537417e-02 2.508698349042483289e-02 2.439361187639826553e-02 2.371852976730647045e-02 2.306766199679857049e-02 2.244656863627453661e-02 2.186040868218459832e-02 2.131391344378722602e-02 2.081136983018861547e-02 2.035661308216494755e-02 1.995302789237987304e-02 1.960355637537344528e-02 1.931071104844765685e-02 1.907659091482964697e-02 1.890289892849142048e-02 1.879095956534433329e-02 1.874173589556183545e-02 1.875584637940160351e-02 1.883358249332302975e-02 1.897492910450007328e-02 1.917959009983332894e-02 1.944702198338059407e-02 1.977647783824904026e-02 2.016706309297112976e-02 2.061780288238526659e-02 2.112771847304067280e-02 2.169590735710377055e-02 2.232161844499459466e-02 2.300431066386801615e-02 2.374368066794598636e-02 2.453964384709441532e-02 2.539225297939363968e-02 2.630154126418805111e-02 2.726728148148526917e-02 2.828866072321400624e-02 2.936388013215148265e-02 3.048970038273755151e-02 3.166096467713861579e-02 3.287013982786780864e-02 3.410692052358794968e-02 3.535794055520482398e-02 3.660662701747143671e-02 3.783322000781080829e-02 3.901496312528916766e-02 4.012645201958026098e-02 4.114011242460265810e-02 4.202676802566523984e-02 4.275625350152781334e-02 4.329802917044368871e-02 4.362175973236588622e-02 4.369782883898534753e-02 4.349777168796886001e-02 4.299461785507777828e-02
3.289855877875880880e-02 3.361477422655634317e-02 3.378195178339615107e-02 3.346532841287844923e-02 3.274063107466979733e-02 3.169373683050460272e-02 3.041928141539063796e-02 2.901789903162349527e-02 2.759192157560116584e-02 2.623966190456428205e-02 2.504882695508072257e-02 2.409003721393771641e-02 2.341167924050331292e-02 2.303720914925437568e-02 2.296551474949160357e-02 2.317419413465665601e-02 2.362491747281153520e-02 2.426967079999920590e-02 2.505672119358728564e-02 2.593548504996160547e-02 2.685992808348421079e-02 2.779050841032456101e-02 2.869491200915967946e-02 2.954792300845006381e-02 3.033076198462367201e-02 3.103016307607666183e-02 3.163738283775327509e-02 3.214726213254728154e-02 3.255740606688985878e-02 3.286750740395957132e-02 3.307881373247969353e-02 3.319372447820075761e-02 3.321549727714730171e-02 3.314804154927341456e-02 3.299577828385313882e-02 3.276354766410449065e-02 3.245654930528912852e-02 3.208030301321364297e-02 3.164062080216527295e-02 3.114358332675819588e-02 3.059551586885147015e-02 3.000296062248489909e-02 2.937264330346297039e-02 2.871143314441489472e-02 2.802629617905086010e-02 2.732424241285748290e-02 2.661226804596535447e-02 2.589729436575650967e-02 2.518610525799311328e-02 2.448528548438334840e-02 2.380116192811625175e-02 2.313974990715695831e-02 2.250670639687669949e-02 2.190729160047789892e-02 2.134633978426681358e-02 2.082823969694544419e-02 2.035692427267907917e-02 1.993586874044058974e-02 1.956809579333303531e-02 1.925618617270575400e-02 1.900229294164578961e-02 1.880815788922539020e-02 1.867512892215962561e-02 1.860417793386532834e-02 1.859591942755295380e-02 1.865063101136426801e-02 1.876827765165028222e-02 1.894854211643429848e-02 1.919086420867200174e-02 1.949449103228363678e-02 1.985853953918390036e-02 2.028207091420792044e-02 2.076417398735216913e-02 2.130405193944731601e-02 2.190110332437876159e-02 2.255498522808906114e-02 2.326564370110556154e-02 2.403329501359865311e-02 2.485834141458279425e-02 2.574120751803118945e-02 2.668208861424050879e-02 2.768061021666973903e-02 2.873540860990703855e-02 2.984365404848262140e-02 3.100054992058296627e-02 3.219885052824943833e-02 3.342844496938184723e-02 3.467605323966201775e-02 3.592507244927547333e-02 3.715559672408823289e-02 3.834461608661451915e-02 3.946638049396015285e-02 4.049289853988361637e-02 4.139452875743825783e-02 4.214061639449755842e-02 4.270012994521990568e-02 4.304225836178962594e-02 4.313693978968780041e-02 4.295530377713861758e-02 4.247001943884579078e-02
3.309775708487252416e-02 3.378556602954817939e-02 3.391872789636744129e-02 3.356227108747444204e-02 3.279191525938947999e-02 3.169382978972772047e-02 3.036334444693565560e-02 2.890227327469790941e-02 2.741464888655811838e-02 2.600095820911852568e-02 2.475140289760989487e-02 2.373916577958301577e-02 2.301495218414284158e-02 2.260399648378370527e-02 2.250621854208434414e-02 2.269943726415223073e-02 2.314481031274105011e-02 2.379325832208414176e-02 2.459165250221868881e-02 2.548789239161152950e-02 2.643446826676813105e-02 2.739050843745022279e-02 2.832256612666250381e-02 2.920450172490091090e-02 3.001680815695519436e-02 3.074566227401418633e-02 3.138190368575446282e-02 3.192006745995038669e-02 3.235753829038012092e-02 3.269385249460016185e-02 3.293014808874546867e-02 3.306874852890342303e-02 3.311285897994158817e-02 3.306635230114302049e-02 3.293362319924349885e-02 3.271949172971938546e-02 3.242914058402739802e-02 3.206807382547524621e-02 3.164208763843460309e-02 3.115724611912475128e-02 3.061985715205419942e-02 3.003644503214135397e-02 2.941371777933990406e-02 2.875852812263315558e-02 2.807782796510868706e-02 2.737861682645204714e-02 2.666788532062557351e-02 2.595255517542422591e-02 2.523941763493669013e-02 2.453507229555421804e-02 2.384586849823211105e-02 2.317785132417052307e-02 2.253671401570561325e-02 2.192775827859365714e-02 2.135586343995215380e-02 2.082546487659117304e-02 2.034054154305109385e-02 1.990461187813222232e-02 1.952073691705001265e-02 1.919152914360780157e-02 1.891916553124487962e-02 1.870540337240824899e-02 1.855159788521475520e-02 1.845872118639594814e-02 1.842738296761503580e-02 1.845785401223943786e-02 1.855009441562033290e-02 1.870378887656853548e-02 1.891839155533530520e-02 1.919318259745251415e-02 1.952733738706865022e-02 1.992000785565888055e-02 2.037041274776939248e-02 2.087793075040103585e-02 2.144218706034761723e-02 2.206312065662041633e-02 2.274101675318804597e-02 2.347648722927831930e-02 2.427038192991748389e-02 2.512361623163031354e-02 2.603690565090047843e-02 2.701040667421511499e-02 2.804327402109280803e-02 2.913315715621146718e-02 3.027567129015709332e-02 3.146388808454982783e-02 3.268789644848799081e-02 3.393448233200882513e-02 3.518696757250678459e-02 3.642523245381144165e-02 3.762592704344117772e-02 3.876285596076982365e-02 3.980750356045871519e-02 4.072965442936714309e-02 4.149805905193336419e-02 4.208109638803436692e-02 4.244739251544884379e-02 4.256636526715525115e-02 4.240867668458511708e-02 4.194658623780636586e-02
3.327383765166674889e-02 3.393825796380664506e-02 3.404301965184697992e-02 3.365290543503379056e-02 3.284354974176920128e-02 3.170128447586052084e-02 3.032194361973887531e-02 2.880826959918173641e-02 2.726569145921511547e-02 2.579653482429487138e-02 2.449316346094052022e-02 2.343103326481196444e-02 2.266296047481341711e-02 2.221585694808910633e-02 2.209068772438903261e-02 2.226560718029938976e-02 2.270145062081831491e-02 2.334830744133312153e-02 2.415190183555764036e-02 2.505885752927498183e-02 2.602040841179895786e-02 2.699454329913424447e-02 2.794684296165704518e-02 2.885037641974712297e-02 2.968501704992893009e-02 3.043647231810257120e-02 3.109523634541931647e-02 3.165559654614395757e-02 3.211476445728968926e-02 3.247215811063076940e-02 3.272883628287078656e-02 3.288706984664444000e-02 3.295002854179251983e-02 3.292155979942631289e-02 3.280603757530120568e-02 3.260826197078244004e-02 3.233339376924219966e-02 3.198691132106888657e-02 3.157458017539654244e-02 3.110242836514385406e-02 3.057672229674140985e-02 3.000393982762257494e-02 2.939073840705405324e-02 2.874391718455001840e-02 2.807037281929047542e-02 2.737704940115766317e-02 2.667088344854945045e-02 2.595874539282180468e-02 2.524737929378602364e-02 2.454334274644666067e-02 2.385294902420494190e-02 2.318221344827135766e-02 2.253680577427043252e-02 2.192201005325426777e-02 2.134269297740849780e-02 2.080328119669862252e-02 2.030774754034855509e-02 1.985960555425073798e-02 1.946191133364698345e-02 1.911727134787625723e-02 1.882785486798153191e-02 1.859540974739541316e-02 1.842128067449575260e-02 1.830642958678983800e-02 1.825145864962550088e-02 1.825663696386943188e-02 1.832193285322602019e-02 1.844705404701843174e-02 1.863149816299717806e-02 1.887461545924480621e-02 1.917568474512740262e-02 1.953400155117547554e-02 1.994897516614722172e-02 2.042022806615405306e-02 2.094768781638100402e-02 2.153165808659574312e-02 2.217285249163122168e-02 2.287237317415664190e-02 2.363161609234164934e-02 2.445208754869564877e-02 2.533512213035911745e-02 2.628150110684534732e-02 2.729098206608648880e-02 2.836176404681484131e-02 2.948992575868216240e-02 3.066888520763870821e-02 3.188893458329868785e-02 3.313690259082387873e-02 3.439598674225322061e-02 3.564578138144654934e-02 3.686250600549022260e-02 3.801941648648269473e-02 3.908736298286002997e-02 4.003544571059705626e-02 4.083171482627211829e-02 4.144386322715896964e-02 4.183986946405094526e-02 4.198855979720261811e-02 4.186007124758705372e-02 4.142620931132748319e-02
